<?xml version="1.0"?>
<opencv_storage>
<src1 type_id="opencv-matrix">
  <rows>27</rows>
  <cols>509</cols>
  <dt>f</dt>
  <data>
    10927. 10964. 11006. 11053. 11101. 11147. 11181. 11215. 11253. 11298. 11339. 11377. 11411. 11437. 11444. 11453. 11461. 11468. 11477. 11492. 11506. 11526. 11555. 11585. 11636. 11694. 11759. 11827. 11903. 11957. 12019. 12079. 12137. 12210. 12305. 12393. 12478. 12559. 12617. 12651. 12673. 12689. 12702. 12714. 12730. 12749. 12771. 12796. 12816. 12832. 12853. 12881. 12908. 12970. 13050. 13128. 13212. 13298. 13351. 13388. 13427. 13463. 13500. 13575. 13734. 13979. 14263. 14546. 14801. 15074. 15263. 15422. 15569. 15620. 15538. 15443. 15345. 15316. 15368. 15394. 15402. 15386. 15301. 15209. 15139. 15072. 15005. 14926. 14842. 14748. 14654. 14572. 14514. 14484. 14484. 14503. 14533. 14550. 14556. 14575. 14598. 14616. 14609. 14603. 14553. 14480. 14379. 14674. 14936. 15339. 15479. 15790. 15915. 16013. 16071. 16173. 16092. 16070. 16098. 16117. 16117. 16092. 16024. 15877. 15698. 15461. 15267. 15173. 15254. 15310. 15391. 15376. 15374. 15194. 15022. 14805. 14647. 14325. 14216. 14411. 14576. 14689. 14933. 14972. 14854. 14729. 14684. 14616. 14584. 14505. 14425. 14332. 14227. 14104. 13967. 13831. 13707. 13567. 13423. 13292. 13179. 13094. 13051. 13042. 13044. 13061. 13087. 13125. 13168. 13223. 13289. 13360. 13447. 13559. 13678. 13798. 13913. 14016. 14087. 14142. 14183. 14216. 14243. 14265. 14287. 14305. 14321. 14334. 14339. 14341. 14359. 14373. 14373. 14355. 14314. 14252. 14190. 14128. 14087. 14061. 14024. 13981. 13949. 13924. 13905. 13894. 13865. 13819. 13753. 13667. 13575. 13629. 13773. 13894. 13977. 14034. 14050. 14037. 14024. 14027. 14037. 14027. 13990. 13935. 13871. 13802. 13734. 13682. 13648. 13625. 13615. 13619. 13650. 13715. 13777. 13899. 14018. 14115. 14190. 14267. 14218. 14168. 14053. 13910. 14041. 14363. 15122. 16015. 16813. 17303. 17321. 17335. 17344. 17358. 17371. 17371. 17367. 17350. 17316. 17220. 16493. 15415. 14555. 13976. 13527. 13252. 12992. 12803. 12672. 12593. 12534. 12505. 12500. 12522. 12567. 12633. 12714. 12801. 12899. 13001. 13109. 13218. 13323. 13429. 13530. 13627. 13715. 13785. 13831. 13846. 13838. 13813. 13788. 13765. 13750. 13730. 13703. 13660. 13601. 13536. 13477. 13419. 13362. 13310. 13242. 13160. 13068. 12974. 12875. 12796. 12735. 12696. 12680. 12686. 12696. 12712. 12733. 12746. 12755. 12765. 12774. 12774. 12771. 12762. 12748. 12730. 12716. 12709. 12707. 12709. 12714. 12719. 12725. 12733. 12746. 12757. 12767. 12776. 12778. 12774. 12771. 12773. 12781. 12805. 12846. 12897. 12957. 13031. 13102. 13160. 13225. 13277. 13310. 13333. 13357. 13368. 13384. 13405. 13425. 13441. 13457. 13467. 13471. 13491. 13516. 13546. 13575. 13593. 13589. 13577. 13557. 13538. 13520. 13497. 13471. 13441. 13394. 13339. 13292. 13246. 13195. 13157. 13132. 13109. 13085. 13065. 13038. 13012. 12988. 12968. 12952. 12935. 12904. 12864. 12810. 12744. 12670. 12612. 12557. 12504. 12469. 12529. 12526. 12473. 12575. 12564. 12668. 13057. 13441. 13615. 13827. 13856. 13836. 13859. 13846. 13825. 13909. 14003. 14055. 14104. 14159. 14115. 14078. 14037. 13999. 13952. 13892. 13815. 13790. 13783. 13757. 13761. 13759. 13685. 13590. 13536. 13447. 13378. 13322. 13256. 13178. 13085. 12983. 12877. 12787. 12710. 12656. 12614. 12581. 12546. 12510. 12480. 12458. 12458. 12485. 12538. 12600. 12668. 12739. 12824. 12948. 13078. 13216. 13388. 13542. 13648. 13748. 13842. 13880. 13911. 13932. 13941. 13937. 13930. 13920. 13913. 13911. 13909. 13903. 13890. 13871. 13844. 13829. 13831. 13844. 13867. 13907. 13949. 13981. 14011. 14029. 14031. 14003. 13954. 13884. 13810. 13744. 13699. 13670. 13656. 13670. 13686. 13707. 13738. 13773. 13794. 13813. 13806. 13781.
    10932. 10966. 11006. 11050. 11098. 11144. 11181. 11219. 11259. 11304. 11345. 11381. 11411. 11434. 11440. 11447. 11454. 11463. 11471. 11487. 11502. 11522. 11553. 11585. 11639. 11702. 11771. 11840. 11914. 11967. 12028. 12089. 12146. 12226. 12323. 12410. 12493. 12574. 12626. 12656. 12677. 12693. 12705. 12719. 12739. 12760. 12783. 12810. 12832. 12850. 12873. 12899. 12924. 12985. 13061. 13140. 13223. 13308. 13360. 13396. 13429. 13461. 13497. 13555. 13658. 13819. 14016. 14207. 14382. 14526. 14621. 14691. 14772. 14846. 14909. 14958. 14995. 15022. 15062. 15099. 15126. 15131. 15121. 15084. 15032. 14973. 14912. 14839. 14758. 14673. 14584. 14510. 14459. 14434. 14425. 14429. 14439. 14452. 14450. 14467. 14496. 14525. 14514. 14511. 14470. 14407. 14326. 14301. 14252. 14390. 14359. 14483. 14583. 14758. 14783. 14952. 14968. 15011. 15023. 15098. 15268. 15437. 15546. 15617. 15645. 15420. 15212. 15101. 14999. 14900. 14846. 14794. 14715. 14600. 14510. 14379. 14194. 13920. 13676. 13704. 13687. 13632. 13757. 13892. 13827. 13843. 13934. 13942. 13947. 13878. 13804. 13717. 13623. 13516. 13407. 13316. 13246. 13168. 13093. 13025. 12963. 12919. 12908. 12919. 12937. 12972. 13016. 13068. 13125. 13189. 13258. 13323. 13398. 13497. 13605. 13715. 13825. 13928. 14005. 14063. 14109. 14144. 14172. 14190. 14205. 14214. 14212. 14205. 14188. 14166. 14155. 14146. 14122. 14081. 14020. 13943. 13867. 13798. 13754. 13732. 13713. 13695. 13684. 13684. 13688. 13691. 13688. 13669. 13630. 13583. 13539. 13582. 13638. 13699. 13748. 13794. 13813. 13852. 13892. 13937. 13977. 13977. 13943. 13886. 13821. 13754. 13691. 13644. 13613. 13595. 13583. 13579. 13579. 13581. 13575. 13619. 13666. 13713. 13763. 13815. 13756. 13691. 13624. 13558. 13635. 14026. 14929. 16001. 16851. 17370. 17369. 17367. 17371. 17381. 17389. 17385. 17384. 17373. 17347. 16722. 15446. 14374. 13664. 13281. 13004. 12812. 12600. 12451. 12360. 12317. 12290. 12285. 12302. 12342. 12402. 12480. 12569. 12663. 12765. 12870. 12974. 13074. 13170. 13265. 13355. 13439. 13514. 13573. 13607. 13617. 13605. 13581. 13561. 13555. 13559. 13561. 13559. 13538. 13495. 13441. 13382. 13320. 13254. 13189. 13109. 13024. 12932. 12846. 12762. 12696. 12647. 12617. 12605. 12610. 12623. 12642. 12665. 12680. 12691. 12702. 12714. 12721. 12723. 12717. 12705. 12686. 12668. 12658. 12656. 12659. 12665. 12670. 12675. 12680. 12687. 12695. 12700. 12703. 12703. 12698. 12693. 12693. 12702. 12719. 12757. 12801. 12855. 12921. 12985. 13037. 13098. 13151. 13183. 13208. 13231. 13239. 13246. 13256. 13256. 13250. 13242. 13229. 13214. 13219. 13235. 13264. 13296. 13325. 13337. 13341. 13331. 13320. 13304. 13277. 13244. 13208. 13153. 13091. 13040. 12996. 12952. 12924. 12910. 12897. 12879. 12861. 12837. 12814. 12792. 12780. 12769. 12755. 12719. 12668. 12598. 12516. 12424. 12345. 12272. 12200. 12142. 12163. 12197. 12182. 12190. 12210. 12230. 12450. 12763. 13001. 13217. 13327. 13331. 13343. 13335. 13302. 13360. 13441. 13489. 13546. 13607. 13569. 13526. 13475. 13423. 13370. 13312. 13246. 13246. 13273. 13256. 13317. 13378. 13372. 13349. 13366. 13323. 13287. 13244. 13179. 13094. 12996. 12891. 12790. 12707. 12640. 12591. 12553. 12516. 12471. 12422. 12375. 12328. 12292. 12269. 12267. 12274. 12290. 12325. 12385. 12481. 12586. 12698. 12843. 12977. 13074. 13237. 13404. 13528. 13654. 13771. 13802. 13817. 13823. 13819. 13815. 13815. 13813. 13802. 13783. 13754. 13713. 13680. 13658. 13633. 13619. 13619. 13623. 13625. 13637. 13641. 13639. 13615. 13585. 13542. 13500. 13467. 13457. 13449. 13449. 13473. 13497. 13520. 13555. 13595. 13621. 13644. 13639. 13617.
    10940. 10973. 11011. 11055. 11105. 11154. 11195. 11237. 11280. 11321. 11357. 11391. 11416. 11434. 11440. 11447. 11453. 11463. 11471. 11487. 11503. 11525. 11557. 11591. 11648. 11712. 11783. 11852. 11925. 11976. 12036. 12095. 12153. 12239. 12337. 12424. 12507. 12588. 12633. 12661. 12680. 12696. 12710. 12726. 12748. 12773. 12798. 12824. 12850. 12871. 12895. 12919. 12942. 13000. 13070. 13145. 13229. 13312. 13364. 13400. 13431. 13457. 13489. 13530. 13601. 13711. 13854. 13992. 14122. 14245. 14343. 14427. 14528. 14628. 14713. 14789. 14849. 14890. 14939. 14988. 15022. 15034. 15032. 15002. 14958. 14905. 14846. 14774. 14701. 14616. 14533. 14464. 14420. 14393. 14384. 14379. 14373. 14361. 14355. 14368. 14393. 14423. 14421. 14410. 14361. 14276. 14167. 14106. 14024. 13946. 13918. 13839. 13742. 13794. 13838. 13883. 13972. 14060. 14032. 14118. 14232. 14354. 14467. 14726. 14921. 14998. 15052. 15052. 14911. 14738. 14582. 14436. 14285. 14100. 13977. 13815. 13656. 13445. 13284. 13250. 13168. 13097. 13192. 13324. 13305. 13389. 13428. 13392. 13333. 13277. 13218. 13151. 13093. 13033. 12974. 12935. 12919. 12891. 12859. 12833. 12810. 12796. 12801. 12824. 12853. 12897. 12952. 13014. 13081. 13155. 13231. 13298. 13368. 13451. 13542. 13639. 13740. 13833. 13913. 13977. 14024. 14061. 14091. 14109. 14120. 14115. 14096. 14068. 14027. 13979. 13943. 13913. 13867. 13800. 13719. 13629. 13538. 13465. 13421. 13400. 13390. 13384. 13384. 13398. 13417. 13443. 13467. 13493. 13498. 13497. 13489. 13495. 13510. 13534. 13559. 13595. 13658. 13728. 13800. 13871. 13924. 13930. 13901. 13844. 13781. 13717. 13660. 13615. 13589. 13573. 13563. 13557. 13555. 13555. 13538. 13522. 13506. 13491. 13477. 13477. 13477. 13473. 13470. 13467. 13615. 13851. 14808. 15955. 16864. 17413. 17403. 17394. 17391. 17393. 17398. 17392. 17391. 16885. 16134. 14815. 13322. 12910. 12637. 12560. 12494. 12436. 12292. 12190. 12142. 12111. 12098. 12108. 12142. 12190. 12257. 12342. 12434. 12529. 12633. 12737. 12839. 12937. 13027. 13113. 13189. 13258. 13316. 13358. 13384. 13390. 13370. 13343. 13320. 13314. 13335. 13366. 13392. 13404. 13388. 13335. 13269. 13198. 13119. 13038. 12952. 12864. 12774. 12698. 12630. 12583. 12546. 12528. 12526. 12536. 12552. 12578. 12607. 12624. 12637. 12649. 12661. 12670. 12673. 12670. 12658. 12637. 12616. 12602. 12597. 12600. 12607. 12614. 12619. 12623. 12626. 12630. 12628. 12626. 12623. 12616. 12609. 12610. 12623. 12642. 12675. 12712. 12757. 12808. 12861. 12902. 12957. 13005. 13035. 13057. 13078. 13081. 13083. 13087. 13081. 13072. 13061. 13044. 13022. 13014. 13016. 13033. 13057. 13089. 13113. 13130. 13130. 13126. 13113. 13083. 13044. 13003. 12946. 12879. 12819. 12765. 12714. 12679. 12659. 12649. 12635. 12623. 12605. 12586. 12567. 12560. 12553. 12545. 12514. 12466. 12398. 12322. 12234. 12163. 12101. 12052. 12012. 11990. 11978. 11978. 11982. 11997. 12078. 12249. 12460. 12648. 12841. 12968. 13025. 13016. 12974. 12900. 12897. 12911. 12952. 13014. 13078. 13046. 13000. 12939. 12873. 12812. 12751. 12702. 12725. 12780. 12758. 12859. 12978. 13042. 13099. 13206. 13223. 13214. 13179. 13108. 13018. 12917. 12819. 12726. 12652. 12591. 12541. 12497. 12449. 12393. 12333. 12277. 12219. 12171. 12130. 12100. 12073. 12052. 12044. 12058. 12111. 12176. 12249. 12362. 12473. 12557. 12703. 12859. 12979. 13176. 13370. 13491. 13603. 13705. 13709. 13711. 13711. 13703. 13684. 13662. 13625. 13571. 13512. 13459. 13404. 13360. 13337. 13323. 13316. 13316. 13312. 13304. 13289. 13273. 13256. 13240. 13233. 13242. 13254. 13267. 13292. 13320. 13347. 13376. 13413. 13447. 13473. 13469. 13445.
    10959. 10991. 11031. 11077. 11128. 11178. 11224. 11268. 11310. 11346. 11377. 11406. 11423. 11437. 11443. 11450. 11454. 11466. 11474. 11490. 11507. 11532. 11564. 11601. 11659. 11723. 11792. 11861. 11931. 11979. 12036. 12093. 12148. 12239. 12340. 12430. 12516. 12600. 12642. 12668. 12686. 12702. 12717. 12733. 12757. 12785. 12814. 12843. 12873. 12900. 12924. 12946. 12968. 13020. 13083. 13155. 13237. 13316. 13364. 13400. 13429. 13449. 13477. 13512. 13567. 13652. 13756. 13856. 13952. 14050. 14139. 14236. 14355. 14477. 14591. 14694. 14772. 14827. 14885. 14936. 14970. 14988. 14985. 14956. 14914. 14863. 14803. 14734. 14665. 14584. 14503. 14439. 14400. 14373. 14364. 14357. 14343. 14319. 14290. 14263. 14247. 14241. 14205. 14172. 14126. 14043. 13949. 13888. 13807. 13730. 13706. 13637. 13552. 13470. 13373. 13252. 13198. 13153. 13109. 13222. 13312. 13416. 13521. 13763. 13900. 14151. 14404. 14613. 14557. 14421. 14205. 14018. 13802. 13595. 13461. 13347. 13246. 13115. 13044. 12974. 12892. 12814. 12875. 12926. 12974. 13016. 13042. 12988. 12950. 12910. 12871. 12837. 12814. 12789. 12767. 12758. 12753. 12744. 12733. 12726. 12723. 12726. 12741. 12765. 12799. 12843. 12899. 12968. 13044. 13121. 13204. 13275. 13341. 13409. 13489. 13573. 13660. 13742. 13819. 13884. 13930. 13969. 14003. 14024. 14033. 14016. 13979. 13928. 13863. 13788. 13728. 13674. 13605. 13518. 13423. 13323. 13229. 13157. 13115. 13094. 13093. 13093. 13096. 13111. 13128. 13153. 13181. 13227. 13279. 13333. 13374. 13423. 13463. 13489. 13510. 13538. 13595. 13668. 13744. 13819. 13880. 13894. 13867. 13815. 13754. 13695. 13639. 13599. 13573. 13559. 13553. 13551. 13551. 13553. 13538. 13518. 13495. 13471. 13449. 13441. 13435. 13435. 13436. 13437. 13441. 13691. 14883. 16097. 16869. 17446. 17434. 17420. 17410. 17406. 17404. 17396. 16836. 15558. 14269. 13209. 12430. 12391. 12328. 12274. 12212. 12148. 12081. 12030. 11990. 11968. 11967. 11984. 12023. 12074. 12138. 12218. 12307. 12400. 12500. 12605. 12707. 12803. 12891. 12974. 13038. 13091. 13132. 13159. 13168. 13168. 13151. 13125. 13102. 13102. 13125. 13176. 13225. 13260. 13256. 13214. 13138. 13051. 12959. 12873. 12783. 12702. 12621. 12557. 12504. 12473. 12446. 12436. 12439. 12456. 12480. 12512. 12550. 12576. 12590. 12600. 12612. 12621. 12624. 12621. 12607. 12583. 12557. 12538. 12529. 12533. 12541. 12550. 12559. 12564. 12565. 12565. 12557. 12541. 12526. 12510. 12498. 12498. 12519. 12545. 12583. 12621. 12661. 12702. 12741. 12769. 12810. 12848. 12870. 12886. 12899. 12893. 12882. 12875. 12862. 12850. 12839. 12828. 12810. 12801. 12794. 12801. 12821. 12855. 12888. 12917. 12930. 12932. 12917. 12884. 12841. 12792. 12732. 12659. 12593. 12534. 12481. 12441. 12417. 12403. 12390. 12378. 12363. 12348. 12335. 12332. 12328. 12327. 12305. 12265. 12205. 12135. 12057. 11995. 11945. 11912. 11892. 11889. 11891. 11900. 11917. 11940. 12019. 12105. 12239. 12370. 12521. 12623. 12705. 12714. 12703. 12666. 12619. 12593. 12586. 12590. 12579. 12548. 12493. 12424. 12350. 12290. 12244. 12216. 12260. 12332. 12362. 12471. 12609. 12742. 12877. 13029. 13108. 13140. 13098. 13018. 12928. 12839. 12755. 12672. 12605. 12541. 12483. 12427. 12372. 12308. 12244. 12189. 12134. 12084. 12042. 12008. 11970. 11934. 11898. 11860. 11858. 11867. 11887. 11953. 12041. 12103. 12228. 12360. 12466. 12642. 12823. 12941. 13134. 13325. 13427. 13522. 13611. 13603. 13573. 13532. 13477. 13400. 13322. 13254. 13191. 13143. 13117. 13098. 13087. 13083. 13079. 13076. 13066. 13057. 13051. 13046. 13046. 13065. 13087. 13106. 13130. 13159. 13183. 13208. 13240. 13273. 13296. 13294. 13273.
    10986. 11022. 11065. 11114. 11169. 11219. 11266. 11310. 11346. 11377. 11401. 11423. 11433. 11444. 11448. 11454. 11457. 11470. 11477. 11492. 11510. 11535. 11566. 11605. 11665. 11727. 11797. 11864. 11929. 11975. 12030. 12084. 12138. 12234. 12337. 12429. 12519. 12607. 12645. 12672. 12691. 12707. 12723. 12742. 12769. 12801. 12833. 12868. 12904. 12935. 12957. 12976. 12994. 13038. 13094. 13162. 13244. 13320. 13364. 13400. 13427. 13441. 13463. 13495. 13536. 13613. 13707. 13800. 13886. 13977. 14055. 14150. 14270. 14404. 14537. 14663. 14758. 14830. 14890. 14941. 14975. 14992. 14985. 14958. 14917. 14868. 14810. 14741. 14670. 14591. 14514. 14457. 14429. 14413. 14413. 14404. 14379. 14337. 14281. 14225. 14146. 14074. 13977. 13894. 13804. 13734. 13670. 13644. 13603. 13569. 13553. 13492. 13421. 13353. 13273. 13171. 13121. 13077. 13032. 12995. 12939. 12891. 12847. 12933. 13035. 13300. 13573. 13898. 13941. 13887. 13732. 13575. 13349. 13128. 12977. 12846. 12739. 12656. 12633. 12612. 12598. 12597. 12616. 12633. 12651. 12658. 12661. 12654. 12659. 12663. 12675. 12684. 12691. 12691. 12691. 12693. 12696. 12693. 12687. 12687. 12687. 12693. 12709. 12732. 12762. 12801. 12857. 12926. 13005. 13085. 13170. 13242. 13308. 13366. 13433. 13506. 13583. 13654. 13725. 13788. 13831. 13869. 13907. 13935. 13949. 13928. 13871. 13794. 13701. 13599. 13514. 13431. 13337. 13235. 13130. 13029. 12950. 12891. 12855. 12830. 12824. 12821. 12819. 12830. 12839. 12853. 12871. 12910. 12935. 12968. 12985. 13003. 13009. 13020. 13031. 13053. 13100. 13252. 13415. 13583. 13742. 13867. 13859. 13819. 13763. 13703. 13646. 13599. 13573. 13567. 13577. 13578. 13581. 13581. 13558. 13516. 13482. 13451. 13425. 13414. 13404. 13407. 13411. 13414. 13419. 13755. 15637. 16737. 17200. 17492. 17480. 17455. 17443. 17430. 17423. 17410. 15987. 14226. 13147. 12659. 12352. 12294. 12223. 12161. 12090. 12016. 11961. 11926. 11903. 11891. 11895. 11914. 11946. 11989. 12046. 12114. 12195. 12284. 12377. 12475. 12574. 12666. 12751. 12828. 12886. 12928. 12955. 12966. 12963. 12952. 12926. 12890. 12857. 12846. 12857. 12895. 12939. 12983. 13000. 12981. 12928. 12864. 12780. 12689. 12602. 12526. 12456. 12407. 12377. 12360. 12345. 12340. 12348. 12368. 12400. 12441. 12488. 12522. 12545. 12557. 12571. 12579. 12583. 12571. 12546. 12514. 12480. 12451. 12439. 12444. 12458. 12471. 12486. 12498. 12504. 12498. 12480. 12452. 12424. 12397. 12378. 12378. 12405. 12437. 12485. 12529. 12574. 12607. 12640. 12656. 12684. 12709. 12723. 12728. 12732. 12714. 12689. 12670. 12654. 12645. 12647. 12656. 12659. 12666. 12668. 12672. 12686. 12714. 12744. 12773. 12790. 12790. 12767. 12725. 12663. 12600. 12529. 12452. 12382. 12325. 12272. 12229. 12203. 12185. 12169. 12155. 12138. 12122. 12106. 12100. 12095. 12093. 12079. 12052. 12006. 11951. 11892. 11846. 11809. 11789. 11782. 11788. 11797. 11812. 11831. 11850. 11870. 11897. 11975. 12052. 12155. 12265. 12358. 12382. 12393. 12378. 12352. 12355. 12382. 12414. 12427. 12420. 12375. 12305. 12226. 12164. 12114. 12084. 12074. 12089. 12117. 12177. 12279. 12442. 12649. 12841. 12972. 13042. 13020. 12924. 12826. 12741. 12652. 12567. 12495. 12420. 12355. 12298. 12242. 12180. 12122. 12076. 12030. 11986. 11946. 11908. 11861. 11815. 11771. 11724. 11679. 11642. 11613. 11626. 11656. 11696. 11795. 11904. 11987. 12132. 12282. 12377. 12543. 12712. 12807. 12983. 13159. 13244. 13310. 13360. 13298. 13218. 13136. 13063. 13000. 12953. 12926. 12906. 12891. 12886. 12886. 12888. 12886. 12886. 12888. 12886. 12888. 12906. 12930. 12952. 12976. 13001. 13022. 13042. 13068. 13096. 13117. 13119. 13102.
    11025. 11063. 11109. 11163. 11219. 11269. 11314. 11352. 11381. 11404. 11421. 11437. 11441. 11448. 11451. 11456. 11457. 11470. 11477. 11490. 11510. 11535. 11566. 11607. 11669. 11730. 11800. 11866. 11928. 11970. 12022. 12073. 12127. 12226. 12330. 12425. 12519. 12610. 12647. 12673. 12695. 12712. 12728. 12749. 12781. 12817. 12853. 12891. 12932. 12963. 12981. 12996. 13011. 13050. 13098. 13160. 13239. 13310. 13353. 13390. 13419. 13433. 13451. 13479. 13512. 13585. 13676. 13771. 13859. 13952. 14027. 14122. 14247. 14391. 14535. 14675. 14782. 14858. 14919. 14970. 15005. 15020. 15010. 14985. 14946. 14900. 14846. 14784. 14717. 14647. 14581. 14537. 14521. 14516. 14521. 14512. 14484. 14427. 14341. 14205. 14046. 13892. 13728. 13593. 13504. 13439. 13382. 13360. 13327. 13296. 13283. 13256. 13223. 13195. 13160. 13111. 13066. 13024. 12981. 12944. 12892. 12847. 12807. 12771. 12732. 12839. 12961. 13224. 13346. 13367. 13271. 13157. 12935. 12764. 12649. 12555. 12481. 12436. 12400. 12370. 12348. 12332. 12318. 12312. 12305. 12300. 12313. 12350. 12402. 12461. 12521. 12569. 12604. 12623. 12635. 12647. 12658. 12659. 12658. 12659. 12659. 12665. 12677. 12696. 12723. 12757. 12807. 12875. 12952. 13033. 13119. 13195. 13262. 13322. 13384. 13457. 13528. 13591. 13654. 13705. 13734. 13765. 13808. 13844. 13861. 13740. 13583. 13400. 13269. 13159. 13159. 13139. 13111. 13016. 12903. 12808. 12742. 12693. 12658. 12623. 12605. 12588. 12571. 12562. 12559. 12559. 12552. 12564. 12567. 12576. 12572. 12581. 12578. 12579. 12584. 12600. 12633. 12764. 12908. 13127. 13361. 13612. 13737. 13832. 13789. 13746. 13697. 13654. 13623. 13615. 13631. 13628. 13623. 13618. 13591. 13520. 13481. 13461. 13435. 13422. 13412. 13417. 13409. 13410. 13411. 13892. 16889. 17608. 17595. 17576. 17568. 17526. 17505. 17479. 17462. 17417. 14457. 12789. 12300. 12289. 12254. 12190. 12111. 12036. 11950. 11880. 11834. 11812. 11808. 11812. 11831. 11857. 11892. 11928. 11975. 12033. 12101. 12179. 12260. 12347. 12434. 12519. 12598. 12670. 12723. 12758. 12776. 12776. 12758. 12735. 12700. 12654. 12612. 12597. 12600. 12626. 12658. 12680. 12679. 12642. 12578. 12507. 12432. 12358. 12298. 12259. 12228. 12218. 12221. 12229. 12228. 12231. 12241. 12262. 12300. 12350. 12409. 12454. 12488. 12507. 12522. 12524. 12517. 12495. 12452. 12403. 12358. 12320. 12295. 12300. 12315. 12340. 12373. 12400. 12410. 12407. 12377. 12332. 12290. 12254. 12229. 12228. 12256. 12288. 12337. 12378. 12439. 12486. 12533. 12565. 12605. 12618. 12618. 12595. 12572. 12533. 12486. 12447. 12432. 12432. 12446. 12483. 12520. 12551. 12565. 12569. 12576. 12593. 12621. 12654. 12681. 12673. 12620. 12546. 12461. 12380. 12302. 12234. 12172. 12121. 12069. 12022. 11989. 11965. 11945. 11929. 11915. 11900. 11883. 11875. 11869. 11867. 11858. 11840. 11811. 11774. 11736. 11708. 11687. 11675. 11673. 11684. 11697. 11715. 11735. 11758. 11773. 11792. 11820. 11849. 11904. 11972. 12030. 12074. 12109. 12114. 12108. 12126. 12169. 12219. 12254. 12270. 12247. 12189. 12121. 12068. 12023. 11995. 11978. 11967. 11967. 11990. 12052. 12184. 12375. 12586. 12742. 12835. 12837. 12764. 12652. 12555. 12463. 12377. 12300. 12228. 12171. 12124. 12076. 12027. 11981. 11946. 11912. 11877. 11840. 11800. 11750. 11700. 11653. 11602. 11551. 11509. 11471. 11441. 11420. 11407. 11444. 11486. 11536. 11647. 11764. 11837. 11979. 12126. 12210. 12370. 12528. 12609. 12675. 12808. 12841. 12859. 12868. 12881. 12821. 12776. 12748. 12732. 12719. 12716. 12719. 12725. 12726. 12730. 12735. 12737. 12741. 12758. 12783. 12808. 12832. 12859. 12879. 12897. 12917. 12941. 12953. 12950. 12932.
    11070. 11113. 11163. 11219. 11273. 11321. 11359. 11388. 11410. 11425. 11437. 11448. 11450. 11454. 11454. 11457. 11457. 11467. 11474. 11487. 11509. 11535. 11569. 11613. 11676. 11736. 11803. 11866. 11923. 11964. 12012. 12063. 12117. 12219. 12325. 12424. 12519. 12612. 12647. 12673. 12696. 12714. 12732. 12755. 12790. 12830. 12870. 12908. 12950. 12977. 12990. 13001. 13014. 13046. 13091. 13149. 13223. 13292. 13337. 13376. 13409. 13425. 13441. 13465. 13493. 13557. 13644. 13740. 13831. 13928. 14009. 14113. 14249. 14404. 14560. 14708. 14818. 14895. 14953. 15005. 15042. 15062. 15054. 15034. 15000. 14958. 14909. 14851. 14791. 14729. 14675. 14642. 14635. 14640. 14651. 14644. 14603. 14529. 14336. 14089. 13823. 13618. 13419. 13283. 13200. 13142. 13096. 13085. 13072. 13057. 13059. 13055. 13048. 13037. 13018. 12983. 12939. 12893. 12846. 12801. 12765. 12742. 12728. 12718. 12711. 12698. 12679. 12796. 12843. 12819. 12767. 12714. 12545. 12415. 12333. 12277. 12221. 12174. 12137. 12108. 12087. 12071. 12057. 12046. 12036. 12030. 12044. 12092. 12164. 12252. 12352. 12441. 12510. 12560. 12595. 12617. 12633. 12637. 12633. 12631. 12624. 12621. 12619. 12619. 12624. 12637. 12665. 12723. 12794. 12868. 12953. 13040. 13125. 13202. 13287. 13386. 13475. 13536. 13504. 13459. 13380. 13304. 13242. 13265. 13273. 13159. 13020. 12857. 12746. 12665. 12723. 12769. 12812. 12791. 12740. 12663. 12617. 12586. 12560. 12528. 12493. 12454. 12409. 12358. 12303. 12262. 12216. 12193. 12177. 12176. 12164. 12166. 12156. 12153. 12156. 12171. 12195. 12308. 12430. 12660. 12931. 13291. 13560. 13840. 13802. 13772. 13731. 13699. 13542. 13417. 13302. 13142. 12959. 12898. 12815. 12682. 12853. 13055. 13209. 13326. 13431. 13436. 13415. 13398. 13398. 13422. 17773. 17721. 17704. 17682. 17659. 17609. 17580. 17542. 17488. 17417. 13324. 12253. 12207. 12169. 12123. 12041. 11953. 11872. 11800. 11744. 11711. 11702. 11711. 11730. 11764. 11802. 11844. 11881. 11923. 11970. 12027. 12090. 12156. 12229. 12308. 12387. 12463. 12534. 12588. 12624. 12642. 12633. 12605. 12572. 12529. 12478. 12436. 12412. 12402. 12402. 12402. 12393. 12370. 12318. 12257. 12197. 12138. 12081. 12039. 12014. 12000. 12005. 12030. 12058. 12074. 12090. 12106. 12126. 12166. 12219. 12284. 12338. 12382. 12395. 12417. 12412. 12400. 12365. 12320. 12252. 12198. 12150. 12121. 12126. 12143. 12179. 12234. 12280. 12300. 12303. 12272. 12213. 12161. 12117. 12084. 12074. 12090. 12109. 12140. 12163. 12203. 12249. 12311. 12379. 12467. 12526. 12538. 12487. 12435. 12368. 12288. 12228. 12198. 12185. 12192. 12231. 12292. 12349. 12362. 12360. 12360. 12358. 12378. 12437. 12455. 12437. 12359. 12258. 12164. 12103. 12047. 12003. 11961. 11923. 11880. 11835. 11800. 11774. 11753. 11738. 11726. 11714. 11700. 11691. 11682. 11678. 11672. 11665. 11650. 11630. 11611. 11595. 11580. 11572. 11572. 11583. 11598. 11614. 11632. 11653. 11663. 11678. 11699. 11721. 11747. 11786. 11818. 11844. 11864. 11877. 11877. 11901. 11951. 12017. 12073. 12114. 12116. 12081. 12027. 11982. 11943. 11917. 11894. 11870. 11846. 11840. 11866. 11959. 12111. 12300. 12452. 12553. 12579. 12534. 12442. 12350. 12260. 12172. 12095. 12028. 11979. 11942. 11906. 11870. 11838. 11817. 11792. 11762. 11729. 11693. 11645. 11599. 11554. 11505. 11456. 11416. 11381. 11355. 11331. 11308. 11282. 11253. 11229. 11259. 11298. 11348. 11466. 11588. 11659. 11797. 11932. 12000. 12058. 12182. 12218. 12254. 12330. 12424. 12454. 12502. 12560. 12579. 12586. 12595. 12604. 12609. 12612. 12617. 12621. 12621. 12617. 12624. 12640. 12659. 12680. 12707. 12726. 12742. 12758. 12776. 12787. 12785. 12771.
    11123. 11165. 11214. 11268. 11318. 11362. 11393. 11416. 11430. 11441. 11448. 11456. 11456. 11458. 11457. 11458. 11458. 11466. 11473. 11486. 11507. 11535. 11572. 11620. 11684. 11744. 11808. 11867. 11918. 11957. 12005. 12055. 12109. 12211. 12317. 12415. 12510. 12604. 12640. 12668. 12693. 12712. 12732. 12757. 12794. 12835. 12877. 12915. 12953. 12977. 12983. 12987. 12998. 13027. 13068. 13126. 13198. 13265. 13310. 13351. 13388. 13411. 13429. 13451. 13475. 13528. 13605. 13693. 13783. 13882. 13971. 14083. 14232. 14402. 14574. 14732. 14849. 14931. 14988. 15037. 15077. 15101. 15099. 15084. 15057. 15022. 14978. 14924. 14871. 14818. 14772. 14751. 14755. 14770. 14786. 14786. 14751. 14572. 14275. 13930. 13577. 13308. 13138. 13012. 12946. 12910. 12891. 12902. 12913. 12917. 12926. 12928. 12930. 12924. 12915. 12891. 12859. 12821. 12785. 12748. 12719. 12698. 12684. 12675. 12665. 12619. 12558. 12541. 12474. 12387. 12337. 12293. 12185. 12111. 12054. 12006. 11959. 11917. 11883. 11857. 11837. 11823. 11811. 11800. 11792. 11788. 11803. 11855. 11936. 12038. 12164. 12292. 12400. 12488. 12553. 12591. 12610. 12614. 12609. 12600. 12586. 12562. 12533. 12492. 12454. 12422. 12415. 12439. 12483. 12534. 12597. 12665. 12732. 12798. 12868. 12950. 13016. 13059. 13011. 12948. 12861. 12778. 12709. 12721. 12725. 12621. 12498. 12357. 12259. 12189. 12204. 12245. 12286. 12353. 12397. 12436. 12478. 12535. 12516. 12483. 12439. 12378. 12294. 12186. 12079. 11987. 11886. 11821. 11786. 11770. 11751. 11748. 11736. 11730. 11730. 11742. 11761. 11860. 11965. 12136. 12384. 12789. 13168. 13662. 13836. 13612. 13421. 13270. 13022. 12835. 12728. 12537. 12331. 12230. 12104. 11919. 12129. 12380. 12569. 12786. 13009. 13127. 13194. 13381. 13381. 13414. 17842. 17803. 17786. 17769. 17744. 17706. 17682. 16610. 14572. 12274. 11744. 11798. 11868. 11896. 11856. 11756. 11696. 11647. 11607. 11580. 11567. 11573. 11595. 11630. 11681. 11735. 11789. 11837. 11880. 11920. 11965. 12017. 12068. 12127. 12192. 12259. 12332. 12405. 12463. 12507. 12534. 12522. 12486. 12447. 12403. 12353. 12317. 12292. 12254. 12211. 12167. 12114. 12058. 12008. 11961. 11917. 11880. 11843. 11817. 11803. 11805. 11824. 11861. 11900. 11928. 11946. 11957. 11970. 12006. 12055. 12111. 12156. 12192. 12193. 12205. 12195. 12185. 12155. 12113. 12046. 11992. 11945. 11915. 11912. 11922. 11950. 12023. 12092. 12143. 12176. 12172. 12111. 12050. 11995. 11943. 11908. 11887. 11872. 11867. 11864. 11886. 11923. 11951. 12064. 12188. 12303. 12361. 12360. 12279. 12189. 12084. 12006. 11962. 11937. 11939. 11975. 12011. 12066. 12078. 12075. 12071. 12084. 12066. 12067. 12060. 12020. 11932. 11868. 11818. 11779. 11755. 11744. 11736. 11730. 11711. 11678. 11648. 11623. 11602. 11586. 11574. 11564. 11553. 11542. 11532. 11526. 11522. 11519. 11515. 11507. 11500. 11493. 11484. 11477. 11477. 11489. 11503. 11519. 11535. 11553. 11558. 11567. 11580. 11599. 11620. 11645. 11663. 11675. 11678. 11676. 11672. 11694. 11747. 11817. 11886. 11946. 11973. 11961. 11931. 11897. 11866. 11841. 11817. 11785. 11753. 11729. 11721. 11773. 11883. 12035. 12166. 12274. 12322. 12305. 12231. 12150. 12060. 11968. 11887. 11826. 11786. 11761. 11738. 11717. 11697. 11684. 11668. 11645. 11617. 11585. 11541. 11499. 11458. 11416. 11374. 11340. 11308. 11278. 11244. 11210. 11171. 11131. 11094. 11061. 11034. 11015. 11057. 11102. 11154. 11268. 11380. 11435. 11486. 11598. 11635. 11681. 11771. 11889. 11957. 12063. 12192. 12282. 12353. 12415. 12452. 12469. 12481. 12488. 12493. 12493. 12485. 12485. 12493. 12507. 12526. 12550. 12567. 12583. 12595. 12605. 12617. 12621. 12621.
    11180. 11218. 11264. 11312. 11359. 11396. 11420. 11435. 11446. 11453. 11457. 11461. 11461. 11463. 11460. 11460. 11460. 11466. 11474. 11489. 11512. 11542. 11583. 11633. 11696. 11755. 11814. 11867. 11914. 11953. 11998. 12049. 12103. 12203. 12305. 12402. 12495. 12586. 12626. 12658. 12686. 12709. 12732. 12757. 12794. 12835. 12875. 12910. 12942. 12959. 12959. 12957. 12963. 12985. 13027. 13083. 13153. 13221. 13273. 13314. 13355. 13384. 13404. 13423. 13443. 13487. 13551. 13629. 13717. 13810. 13899. 14020. 14185. 14375. 14565. 14741. 14871. 14953. 15005. 15057. 15101. 15129. 15136. 15129. 15109. 15079. 15044. 14997. 14949. 14902. 14871. 14860. 14865. 14887. 14916. 14764. 14575. 14277. 13916. 13488. 13183. 12966. 12855. 12765. 12733. 12732. 12749. 12769. 12790. 12801. 12812. 12816. 12830. 12839. 12844. 12837. 12821. 12787. 12748. 12703. 12670. 12633. 12576. 12524. 12468. 12383. 12295. 12218. 12137. 12057. 11995. 11939. 11887. 11835. 11788. 11748. 11709. 11675. 11650. 11633. 11622. 11620. 11623. 11624. 11629. 11635. 11647. 11688. 11758. 11846. 11962. 12105. 12247. 12375. 12481. 12557. 12595. 12598. 12590. 12574. 12529. 12461. 12388. 12298. 12211. 12155. 12132. 12132. 12156. 12190. 12231. 12280. 12335. 12388. 12446. 12512. 12562. 12590. 12533. 12461. 12370. 12284. 12210. 12213. 12211. 12117. 12011. 11884. 11798. 11741. 11721. 11762. 11810. 11889. 11944. 12031. 12123. 12242. 12291. 12337. 12382. 12249. 12098. 11943. 11812. 11705. 11601. 11532. 11479. 11435. 11394. 11363. 11333. 11321. 11318. 11326. 11339. 11424. 11515. 11626. 11768. 12056. 12299. 12609. 12757. 12739. 12658. 12589. 12417. 12290. 12190. 11975. 11750. 11617. 11451. 11224. 11461. 11752. 11974. 12235. 12535. 12741. 12895. 13398. 13398. 13422. 17959. 17896. 16957. 16567. 16222. 15543. 14461. 13268. 11665. 10761. 11105. 11272. 11388. 11466. 11475. 11411. 11374. 11352. 11340. 11343. 11364. 11400. 11447. 11506. 11576. 11642. 11709. 11770. 11823. 11869. 11914. 11957. 11995. 12036. 12079. 12127. 12185. 12251. 12318. 12378. 12424. 12424. 12395. 12353. 12308. 12260. 12224. 12187. 12119. 12028. 11934. 11843. 11773. 11721. 11691. 11669. 11651. 11626. 11613. 11613. 11626. 11657. 11702. 11745. 11774. 11791. 11797. 11797. 11815. 11838. 11864. 11881. 11898. 11889. 11898. 11889. 11881. 11855. 11821. 11765. 11721. 11681. 11656. 11648. 11651. 11673. 11739. 11837. 11922. 11990. 12027. 12008. 11939. 11874. 11802. 11736. 11679. 11638. 11605. 11583. 11591. 11619. 11616. 11709. 11808. 11941. 12027. 12084. 12042. 11984. 11891. 11817. 11773. 11744. 11738. 11764. 11774. 11822. 11832. 11828. 11820. 11840. 11784. 11737. 11710. 11657. 11569. 11541. 11526. 11497. 11490. 11502. 11521. 11538. 11541. 11526. 11506. 11484. 11466. 11450. 11440. 11433. 11423. 11414. 11407. 11401. 11393. 11388. 11390. 11390. 11390. 11394. 11397. 11391. 11388. 11390. 11390. 11390. 11393. 11397. 11388. 11381. 11374. 11373. 11400. 11443. 11483. 11516. 11541. 11534. 11519. 11526. 11570. 11633. 11706. 11782. 11832. 11844. 11835. 11811. 11780. 11755. 11726. 11691. 11659. 11630. 11614. 11629. 11700. 11815. 11928. 12023. 12095. 12106. 12049. 11965. 11870. 11776. 11691. 11636. 11610. 11598. 11586. 11576. 11566. 11555. 11544. 11528. 11506. 11477. 11443. 11410. 11377. 11339. 11301. 11265. 11228. 11191. 11150. 11109. 11065. 11018. 10974. 10935. 10900. 10871. 10844. 10816. 10790. 10827. 10862. 10904. 10953. 11066. 11114. 11176. 11276. 11397. 11473. 11582. 11718. 11832. 11936. 12044. 12151. 12233. 12284. 12322. 12343. 12333. 12315. 12317. 12328. 12343. 12365. 12388. 12409. 12424. 12434. 12441. 12451. 12464. 12481.
    11240. 11272. 11310. 11350. 11388. 11420. 11438. 11451. 11458. 11463. 11466. 11468. 11468. 11470. 11468. 11467. 11466. 11468. 11477. 11493. 11518. 11551. 11595. 11645. 11705. 11762. 11818. 11867. 11911. 11948. 11990. 12038. 12090. 12180. 12279. 12373. 12464. 12553. 12602. 12638. 12670. 12696. 12723. 12749. 12783. 12821. 12855. 12882. 12906. 12911. 12904. 12897. 12897. 12913. 12952. 13000. 13057. 13119. 13166. 13206. 13256. 13298. 13327. 13353. 13372. 13402. 13449. 13512. 13591. 13678. 13763. 13901. 14072. 14273. 14499. 14715. 14855. 14903. 14794. 14691. 14581. 14454. 14325. 14307. 14285. 14258. 14241. 14370. 14462. 14575. 14754. 14946. 14948. 14967. 14802. 14462. 14092. 13713. 13351. 12994. 12779. 12650. 12607. 12564. 12571. 12574. 12586. 12597. 12605. 12607. 12609. 12607. 12642. 12679. 12714. 12741. 12758. 12730. 12651. 12564. 12483. 12395. 12287. 12219. 12146. 12046. 11943. 11857. 11774. 11702. 11651. 11611. 11583. 11553. 11523. 11503. 11486. 11470. 11463. 11463. 11464. 11470. 11479. 11486. 11496. 11507. 11525. 11560. 11614. 11684. 11779. 11898. 12035. 12195. 12343. 12463. 12545. 12584. 12574. 12505. 12410. 12290. 12166. 12028. 11934. 11866. 11832. 11817. 11821. 11837. 11860. 11891. 11929. 11972. 12016. 12066. 12101. 12119. 12058. 11986. 11898. 11814. 11738. 11732. 11718. 11626. 11534. 11425. 11356. 11315. 11274. 11328. 11391. 11484. 11560. 11690. 11754. 11835. 11843. 11848. 11842. 11794. 11713. 11613. 11524. 11453. 11366. 11312. 11287. 11271. 11255. 11247. 11239. 11233. 11232. 11237. 11246. 11261. 11276. 11280. 11270. 11371. 11486. 11635. 11766. 11921. 11940. 11951. 11847. 11768. 11666. 11508. 11362. 11320. 11272. 11204. 11299. 11464. 11591. 11755. 11992. 12220. 12404. 13447. 13447. 13447. 14572. 15264. 14739. 14517. 14132. 13607. 12671. 11852. 10920. 10656. 10813. 10938. 11030. 11100. 11116. 11083. 11057. 11043. 11049. 11071. 11114. 11173. 11250. 11339. 11434. 11522. 11607. 11678. 11741. 11797. 11847. 11894. 11928. 11951. 11967. 11986. 12016. 12055. 12127. 12205. 12281. 12319. 12338. 12319. 12288. 12252. 12238. 12172. 12066. 11933. 11820. 11682. 11594. 11528. 11489. 11457. 11441. 11430. 11431. 11444. 11468. 11502. 11538. 11570. 11582. 11582. 11572. 11555. 11554. 11560. 11567. 11569. 11574. 11561. 11567. 11558. 11553. 11535. 11515. 11473. 11441. 11411. 11390. 11380. 11374. 11388. 11446. 11532. 11611. 11685. 11747. 11756. 11717. 11673. 11613. 11538. 11464. 11406. 11353. 11317. 11308. 11325. 11287. 11362. 11426. 11573. 11682. 11795. 11792. 11780. 11702. 11638. 11595. 11563. 11544. 11555. 11535. 11573. 11579. 11578. 11568. 11596. 11506. 11418. 11374. 11312. 11231. 11239. 11261. 11247. 11257. 11286. 11325. 11362. 11384. 11387. 11379. 11364. 11349. 11335. 11325. 11318. 11310. 11301. 11294. 11289. 11276. 11268. 11266. 11266. 11268. 11278. 11284. 11280. 11275. 11268. 11255. 11240. 11229. 11217. 11192. 11169. 11146. 11125. 11139. 11171. 11208. 11278. 11343. 11376. 11401. 11437. 11464. 11510. 11569. 11633. 11685. 11711. 11715. 11700. 11673. 11648. 11619. 11582. 11551. 11534. 11528. 11538. 11576. 11654. 11742. 11815. 11883. 11925. 11889. 11809. 11720. 11629. 11544. 11497. 11477. 11470. 11463. 11458. 11451. 11443. 11433. 11421. 11406. 11384. 11359. 11332. 11300. 11259. 11218. 11178. 11137. 11098. 11055. 11013. 10965. 10915. 10866. 10825. 10788. 10757. 10728. 10698. 10667. 10636. 10601. 10573. 10555. 10600. 10650. 10712. 10812. 10930. 11001. 11102. 11230. 11338. 11441. 11558. 11711. 11843. 11953. 12057. 12142. 12155. 12137. 12132. 12130. 12129. 12143. 12184. 12228. 12262. 12287. 12297. 12303. 12318. 12350.
    11298. 11322. 11352. 11383. 11413. 11438. 11454. 11466. 11470. 11471. 11473. 11474. 11474. 11477. 11479. 11477. 11476. 11477. 11486. 11502. 11526. 11560. 11604. 11654. 11708. 11761. 11812. 11857. 11895. 11932. 11973. 12019. 12068. 12148. 12234. 12317. 12395. 12473. 12519. 12564. 12605. 12645. 12684. 12719. 12749. 12780. 12801. 12816. 12824. 12819. 12807. 12796. 12792. 12805. 12839. 12882. 12933. 12990. 13037. 13074. 13126. 13181. 13223. 13256. 13283. 13300. 13329. 13376. 13449. 13530. 13617. 13744. 13902. 14096. 14216. 14314. 14338. 14258. 14050. 13928. 13804. 13670. 13544. 13522. 13504. 13487. 13479. 13605. 13637. 13672. 13834. 14003. 13907. 13918. 13867. 13578. 13233. 12972. 12750. 12507. 12387. 12355. 12382. 12385. 12395. 12398. 12398. 12387. 12372. 12352. 12333. 12320. 12347. 12377. 12405. 12422. 12422. 12383. 12298. 12206. 12124. 12039. 11934. 11863. 11786. 11685. 11588. 11507. 11435. 11377. 11339. 11315. 11310. 11307. 11308. 11319. 11331. 11338. 11349. 11360. 11370. 11381. 11393. 11401. 11414. 11427. 11443. 11470. 11506. 11548. 11614. 11705. 11818. 11964. 12146. 12305. 12432. 12452. 12424. 12295. 12148. 11978. 11866. 11739. 11651. 11583. 11545. 11516. 11503. 11499. 11502. 11515. 11539. 11569. 11601. 11633. 11651. 11660. 11601. 11536. 11466. 11393. 11314. 11296. 11272. 11243. 11215. 11180. 11137. 11105. 11057. 11060. 11074. 11161. 11248. 11349. 11383. 11425. 11392. 11353. 11293. 11326. 11313. 11275. 11236. 11208. 11152. 11129. 11129. 11139. 11144. 11144. 11141. 11139. 11136. 11139. 11144. 11156. 11167. 11172. 11162. 11142. 11108. 11065. 11019. 11143. 11239. 11312. 11274. 11248. 11154. 11089. 11050. 11105. 11158. 11197. 11272. 11324. 11372. 11409. 11486. 11486. 11511. -1. -1. 10450. 11704. 12864. 12760. 12714. 12469. 12188. 11511. 11039. 10546. 10600. 10649. 10714. 10759. 10795. 10788. 10778. 10761. 10761. 10783. 10821. 10879. 10949. 11034. 11135. 11251. 11360. 11463. 11554. 11632. 11700. 11762. 11818. 11858. 11877. 11869. 11857. 11854. 11863. 11914. 11997. 12098. 12177. 12262. 12308. 12283. 12251. 12243. 12129. 11977. 11807. 11684. 11553. 11476. 11427. 11407. 11388. 11374. 11362. 11355. 11349. 11350. 11355. 11360. 11367. 11366. 11357. 11343. 11324. 11312. 11304. 11290. 11273. 11262. 11239. 11235. 11228. 11226. 11210. 11199. 11170. 11148. 11127. 11118. 11109. 11101. 11104. 11141. 11214. 11293. 11370. 11448. 11487. 11473. 11446. 11397. 11329. 11254. 11193. 11137. 11101. 11074. 11071. 11053. 11095. 11114. 11259. 11381. 11498. 11541. 11577. 11528. 11486. 11450. 11416. 11390. 11379. 11362. 11376. 11372. 11366. 11356. 11353. 11287. 11221. 11164. 11105. 11048. 11036. 11043. 11050. 11077. 11113. 11158. 11204. 11241. 11261. 11266. 11261. 11250. 11235. 11219. 11207. 11196. 11185. 11177. 11171. 11158. 11146. 11140. 11136. 11135. 11143. 11151. 11147. 11140. 11127. 11105. 11073. 11043. 11013. 10974. 10939. 10911. 10888. 10898. 10927. 10961. 11027. 11118. 11186. 11248. 11319. 11373. 11414. 11458. 11507. 11542. 11561. 11567. 11550. 11523. 11499. 11468. 11431. 11403. 11386. 11394. 11424. 11473. 11492. 11582. 11598. 11660. 11645. 11636. 11531. 11500. 11411. 11380. 11377. 11390. 11380. 11369. 11362. 11355. 11348. 11339. 11333. 11325. 11307. 11284. 11257. 11221. 11176. 11132. 11089. 11046. 11005. 10961. 10918. 10871. 10824. 10774. 10731. 10691. 10657. 10626. 10594. 10560. 10526. 10487. 10451. 10426. 10411. 10400. 10400. 10436. 10485. 10544. 10631. 10744. 10838. 10931. 11034. 11165. 11275. 11364. 11510. 11654. 11738. 11783. 11841. 11857. 11864. 11877. 11948. 12030. 12086. 12129. 12166. 12178. 12206. 12243.
    11350. 11366. 11386. 11410. 11434. 11454. 11468. 11477. 11479. 11477. 11476. 11474. 11474. 11477. 11480. 11479. 11477. 11479. 11487. 11503. 11528. 11561. 11602. 11648. 11696. 11744. 11791. 11834. 11872. 11909. 11948. 11990. 12036. 12106. 12182. 12252. 12318. 12382. 12422. 12463. 12504. 12552. 12598. 12638. 12666. 12693. 12700. 12700. 12695. 12682. 12663. 12649. 12642. 12649. 12672. 12709. 12753. 12810. 12861. 12908. 12965. 13029. 13083. 13126. 13151. 13160. 13170. 13185. 13246. 13331. 13372. 13445. 13505. 13546. 13542. 13578. 13551. 13510. 13349. 13214. 13081. 12944. 12821. 12796. 12778. 12764. 12765. 12890. 12869. 12838. 12985. 13134. 12963. 12968. 13010. 12765. 12540. 12461. 12400. 12275. 12249. 12213. 12228. 12236. 12244. 12239. 12218. 12179. 12130. 12082. 12042. 12016. 12027. 12038. 12046. 12042. 12028. 11982. 11901. 11817. 11739. 11657. 11555. 11487. 11416. 11325. 11241. 11185. 11136. 11102. 11091. 11097. 11113. 11136. 11165. 11199. 11230. 11254. 11279. 11298. 11314. 11329. 11345. 11357. 11371. 11386. 11400. 11417. 11435. 11454. 11486. 11539. 11619. 11730. 11877. 12006. 12109. 12116. 12082. 11962. 11832. 11682. 11592. 11490. 11424. 11373. 11342. 11305. 11278. 11258. 11241. 11232. 11232. 11235. 11237. 11236. 11228. 11226. 11226. 11228. 11236. 11243. 11237. 11226. 11203. 11169. 11133. 11093. 11046. 11003. 10962. 10922. 10891. 10927. 10969. 11015. 11015. 11015. 10942. 10853. 10743. 10838. 10885. 10913. 10939. 10969. 10953. 10965. 10989. 11015. 11031. 11037. 11038. 11037. 11033. 11033. 11034. 11039. 11045. 11055. 11054. 11048. 11036. 11021. 10990. 10974. 10960. 10941. 10927. 10923. 10924. 10947. 11001. 11059. 11114. 11150. 11147. 11108. 11063. 11026. 10986. 10959. 10929. -1. 10391. 10410. 10435. 11305. 11343. 11419. 11336. 11304. 10902. 10709. 10514. 10552. 10589. 10598. 10597. 10592. 10553. 10511. 10503. 10506. 10533. 10576. 10637. 10712. 10802. 10908. 11033. 11155. 11272. 11376. 11468. 11553. 11626. 11696. 11745. 11759. 11726. 11678. 11626. 11585. 11589. 11608. 11702. 11807. 12012. 12203. 12333. 12310. 12303. 12080. 11841. 11620. 11516. 11406. 11367. 11353. 11348. 11335. 11315. 11296. 11273. 11251. 11233. 11219. 11199. 11185. 11167. 11148. 11131. 11113. 11096. 11078. 11047. 11011. 10982. 10956. 10935. 10927. 10926. 10918. 10909. 10901. 10893. 10885. 10885. 10879. 10870. 10863. 10882. 10936. 11005. 11075. 11156. 11214. 11217. 11206. 11174. 11120. 11058. 11010. 10966. 10943. 10928. 10922. 10926. 10988. 11017. 11113. 11217. 11309. 11340. 11381. 11367. 11348. 11331. 11311. 11293. 11279. 11268. 11255. 11253. 11247. 11239. 11214. 11177. 11118. 11065. 11009. 10966. 10935. 10921. 10919. 10940. 10970. 11013. 11061. 11104. 11131. 11146. 11146. 11137. 11121. 11101. 11081. 11062. 11045. 11034. 11027. 11014. 10995. 10981. 10966. 10955. 10953. 10960. 10959. 10952. 10936. 10910. 10869. 10829. 10789. 10746. 10706. 10678. 10655. 10663. 10687. 10717. 10778. 10865. 10961. 11062. 11171. 11262. 11331. 11369. 11397. 11413. 11417. 11416. 11391. 11364. 11336. 11305. 11268. 11235. 11200. 11191. 11197. 11221. 11218. 11289. 11291. 11336. 11314. 11307. 11219. 11208. 11167. 11178. 11210. 11250. 11262. 11250. 11241. 11235. 11232. 11233. 11237. 11239. 11226. 11207. 11176. 11136. 11087. 11042. 10998. 10956. 10914. 10873. 10830. 10784. 10738. 10687. 10641. 10599. 10565. 10531. 10499. 10464. 10431. 10392. 10355. 10327. 10305. 10285. 10269. 10254. 10244. 10246. 10273. 10325. 10392. 10464. 10540. 10642. 10726. 10793. 10914. 11041. 11116. 11159. 11214. 11296. 11370. 11456. 11598. 11778. 11863. 11953. 12037. 12098. 12127. 12172.
    11390. 11401. 11416. 11433. 11453. 11467. 11477. 11483. 11481. 11476. 11471. 11468. 11467. 11470. 11473. 11471. 11470. 11473. 11481. 11497. 11522. 11554. 11591. 11630. 11672. 11714. 11758. 11798. 11840. 11878. 11917. 11956. 12000. 12060. 12127. 12185. 12239. 12287. 12317. 12347. 12383. 12429. 12476. 12517. 12545. 12567. 12567. 12559. 12545. 12526. 12504. 12490. 12478. 12475. 12486. 12510. 12541. 12597. 12654. 12709. 12769. 12826. 12875. 12913. 12933. 12926. 12921. 12910. 12935. 12979. 12990. 13031. 13014. 12955. 12898. 12874. 12801. 12789. 12677. 12534. 12405. 12275. 12158. 12134. 12119. 12109. 12116. 12236. 12169. 12084. 12217. 12347. 12117. 12122. 12238. 12029. 11851. 11932. 12006. 11976. 12036. 12076. 12090. 12097. 12095. 12071. 12023. 11959. 11880. 11802. 11741. 11691. 11672. 11656. 11639. 11616. 11591. 11542. 11464. 11384. 11308. 11229. 11135. 11075. 11018. 10962. 10921. 10905. 10898. 10905. 10918. 10940. 10973. 11009. 11050. 11098. 11144. 11182. 11221. 11253. 11276. 11298. 11318. 11335. 11350. 11366. 11379. 11390. 11397. 11398. 11398. 11410. 11441. 11505. 11604. 11697. 11777. 11776. 11742. 11633. 11522. 11404. 11346. 11283. 11257. 11240. 11230. 11207. 11181. 11156. 11135. 11118. 11114. 11114. 11114. 11112. 11105. 11108. 11112. 11121. 11139. 11155. 11156. 11150. 11127. 11091. 11054. 11011. 10969. 10934. 10900. 10866. 10842. 10825. 10810. 10794. 10776. 10753. 10730. 10705. 10680. 10693. 10699. 10712. 10731. 10757. 10779. 10817. 10852. 10889. 10915. 10927. 10931. 10931. 10926. 10922. 10914. 10908. 10901. 10896. 10908. 10922. 10940. 10958. 10970. 10952. 10934. 10907. 10885. 10871. 10869. 10858. 10870. 10884. 10896. 10892. 10884. 10854. 10815. 10761. 10726. 10691. 10559. 10371. 10391. 10399. 10415. 10724. 10672. 10651. 10644. 10642. 10467. 10462. 10449. 10432. 10417. 10402. 10387. 10368. 10347. 10323. 10303. 10297. 10316. 10352. 10411. 10486. 10577. 10681. 10801. 10919. 11038. 11146. 11244. 11339. 11418. 11493. 11536. 11531. 11474. 11403. 11314. 11240. 11224. 11191. 11201. 11213. 11374. 11519. 11690. 11688. 11729. 11572. 11419. 11290. 11295. 11260. 11274. 11293. 11302. 11280. 11241. 11202. 11161. 11121. 11089. 11069. 11042. 11018. 10991. 10970. 10952. 10934. 10911. 10884. 10839. 10793. 10754. 10722. 10696. 10684. 10677. 10666. 10660. 10663. 10667. 10670. 10681. 10687. 10687. 10688. 10692. 10727. 10770. 10819. 10880. 10945. 10962. 10966. 10953. 10921. 10889. 10870. 10854. 10852. 10853. 10849. 10854. 10871. 10906. 10966. 11043. 11112. 11171. 11210. 11222. 11219. 11219. 11214. 11199. 11185. 11173. 11156. 11148. 11143. 11133. 11109. 11071. 11019. 10972. 10923. 10887. 10862. 10845. 10835. 10839. 10851. 10874. 10909. 10944. 10977. 10999. 11007. 11002. 10985. 10955. 10922. 10889. 10861. 10842. 10830. 10816. 10797. 10778. 10759. 10740. 10730. 10728. 10721. 10710. 10692. 10663. 10619. 10578. 10538. 10496. 10457. 10432. 10408. 10414. 10430. 10451. 10502. 10579. 10667. 10762. 10915. 11051. 11166. 11247. 11311. 11308. 11297. 11275. 11240. 11208. 11176. 11133. 11086. 11033. 10980. 10951. 10943. 10955. 10947. 11006. 10999. 11033. 11005. 10999. 10926. 10931. 10910. 10941. 10990. 11043. 11073. 11079. 11087. 11096. 11108. 11121. 11135. 11146. 11137. 11124. 11093. 11053. 11003. 10959. 10914. 10874. 10835. 10792. 10746. 10698. 10651. 10595. 10549. 10510. 10476. 10443. 10413. 10382. 10352. 10314. 10277. 10246. 10217. 10188. 10163. 10137. 10110. 10090. 10076. 10072. 10080. 10094. 10116. 10178. 10236. 10284. 10389. 10500. 10568. 10613. 10666. 10742. 10811. 10888. 11073. 11284. 11416. 11603. 11825. 11953. 12053. 12099.
    11416. 11423. 11431. 11443. 11456. 11466. 11473. 11477. 11474. 11468. 11464. 11461. 11460. 11463. 11466. 11464. 11463. 11464. 11470. 11483. 11505. 11531. 11561. 11596. 11632. 11666. 11705. 11745. 11788. 11831. 11874. 11915. 11961. 12012. 12069. 12116. 12158. 12189. 12206. 12224. 12251. 12285. 12327. 12365. 12388. 12407. 12405. 12392. 12372. 12350. 12325. 12307. 12288. 12279. 12270. 12275. 12284. 12313. 12345. 12383. 12425. 12464. 12500. 12529. 12545. 12534. 12533. 12528. 12553. 12593. 12600. 12621. 12537. 12382. 12276. 12198. 12088. 12108. 12047. 11909. 11786. 11665. 11554. 11532. 11519. 11513. 11522. 11633. 11637. 11637. 11746. 11852. 11738. 11743. 11764. 11692. 11643. 11726. 11806. 11874. 11932. 11970. 11979. 11973. 11948. 11892. 11798. 11691. 11580. 11479. 11400. 11338. 11290. 11246. 11206. 11163. 11129. 11089. 11023. 10960. 10898. 10839. 10784. 10761. 10741. 10723. 10713. 10712. 10720. 10740. 10768. 10804. 10851. 10901. 10955. 11015. 11075. 11129. 11181. 11222. 11254. 11280. 11301. 11318. 11335. 11350. 11364. 11373. 11376. 11370. 11356. 11333. 11314. 11322. 11363. 11404. 11451. 11444. 11411. 11314. 11235. 11162. 11146. 11129. 11147. 11154. 11151. 11132. 11104. 11074. 11047. 11027. 11019. 11017. 11015. 11011. 11006. 11010. 11017. 11029. 11050. 11070. 11075. 11070. 11050. 11018. 10982. 10945. 10911. 10884. 10857. 10830. 10808. 10789. 10766. 10741. 10717. 10688. 10665. 10643. 10627. 10611. 10601. 10599. 10604. 10618. 10646. 10683. 10715. 10749. 10770. 10780. 10782. 10775. 10755. 10737. 10715. 10692. 10676. 10668. 10678. 10711. 10752. 10800. 10855. 10889. 10899. 10875. 10858. 10807. 10767. 10718. 10688. 10662. 10660. 10647. 10640. 10622. 10585. 10536. 10497. 10453. 10364. 10339. 10361. 10378. 10398. 10411. 10420. 10429. 10435. 10433. 10427. 10416. 10397. 10374. 10347. 10317. 10287. 10252. 10219. 10190. 10170. 10159. 10170. 10194. 10235. 10296. 10377. 10470. 10582. 10696. 10810. 10911. 11005. 11094. 11167. 11230. 11264. 11250. 11189. 11113. 11021. 10940. 10902. 10821. 10754. 10678. 10787. 10892. 11096. 11104. 11187. 11095. 11018. 10979. 11075. 11114. 11179. 11240. 11247. 11194. 11126. 11064. 11006. 10959. 10928. 10909. 10883. 10858. 10835. 10816. 10801. 10784. 10760. 10735. 10688. 10637. 10588. 10548. 10505. 10481. 10464. 10455. 10454. 10469. 10488. 10509. 10532. 10551. 10560. 10566. 10572. 10579. 10594. 10615. 10650. 10691. 10726. 10747. 10755. 10747. 10742. 10745. 10751. 10766. 10776. 10776. 10776. 10790. 10816. 10867. 10935. 10997. 11047. 11085. 11101. 11102. 11108. 11106. 11096. 11085. 11075. 11061. 11051. 11041. 11029. 11005. 10970. 10919. 10875. 10829. 10792. 10764. 10749. 10740. 10740. 10744. 10755. 10778. 10802. 10829. 10856. 10873. 10870. 10851. 10815. 10766. 10717. 10677. 10646. 10622. 10604. 10582. 10556. 10534. 10514. 10498. 10491. 10484. 10473. 10460. 10438. 10401. 10367. 10334. 10302. 10274. 10262. 10252. 10246. 10242. 10238. 10260. 10307. 10387. 10475. 10613. 10730. 10888. 11007. 11110. 11155. 11196. 11155. 11113. 11075. 11031. 10970. 10905. 10830. 10759. 10713. 10693. 10696. 10680. 10725. 10711. 10735. 10702. 10700. 10641. 10661. 10660. 10711. 10775. 10838. 10876. 10892. 10908. 10924. 10949. 10980. 11009. 11034. 11038. 11033. 11005. 10969. 10926. 10885. 10831. 10782. 10732. 10680. 10626. 10586. 10545. 10498. 10456. 10419. 10386. 10355. 10328. 10301. 10270. 10234. 10191. 10153. 10118. 10087. 10058. 10029. 9998. 9966. 9935. 9907. 9882. 9858. 9837. 9840. 9847. 9861. 9933. 10019. 10085. 10127. 10169. 10228. 10283. 10348. 10515. 10685. 10800. 11006. 11286. 11535. 11841. 12026.
    11416. 11418. 11424. 11431. 11441. 11448. 11454. 11457. 11456. 11451. 11448. 11447. 11447. 11450. 11451. 11451. 11451. 11453. 11457. 11467. 11484. 11505. 11529. 11558. 11588. 11614. 11645. 11682. 11724. 11771. 11820. 11869. 11918. 11973. 12025. 12062. 12090. 12106. 12106. 12108. 12121. 12142. 12169. 12195. 12210. 12221. 12213. 12192. 12164. 12138. 12109. 12090. 12074. 12065. 12050. 12047. 12046. 12057. 12068. 12076. 12082. 12085. 12093. 12098. 12105. 12092. 12089. 12089. 12124. 12169. 12185. 12192. 12133. 12016. 11884. 11775. 11664. 11619. 11589. 11550. 11526. 11506. 11489. 11477. 11471. 11470. 11474. 11481. 11484. 11481. 11473. 11464. 11461. 11464. 11480. 11515. 11573. 11653. 11738. 11814. 11877. 11912. 11903. 11858. 11780. 11672. 11531. 11391. 11269. 11167. 11091. 11031. 10964. 10893. 10830. 10765. 10712. 10677. 10651. 10629. 10609. 10592. 10579. 10575. 10573. 10575. 10579. 10589. 10606. 10632. 10670. 10716. 10769. 10825. 10884. 10947. 11011. 11074. 11135. 11186. 11228. 11262. 11287. 11305. 11322. 11338. 11349. 11356. 11355. 11342. 11312. 11272. 11226. 11181. 11165. 11154. 11154. 11112. 11078. 11023. 10989. 10965. 10995. 11026. 11058. 11079. 11085. 11074. 11049. 11015. 10984. 10957. 10941. 10934. 10931. 10926. 10921. 10923. 10928. 10940. 10962. 10985. 10994. 10994. 10982. 10959. 10930. 10900. 10874. 10851. 10826. 10802. 10780. 10755. 10722. 10684. 10648. 10609. 10577. 10549. 10528. 10506. 10492. 10485. 10487. 10498. 10522. 10553. 10578. 10603. 10611. 10609. 10598. 10578. 10549. 10526. 10500. 10476. 10460. 10452. 10462. 10497. 10525. 10556. 10592. 10652. 10694. 10716. 10713. 10675. 10609. 10535. 10482. 10450. 10435. 10414. 10406. 10395. 10357. 10328. 10308. 10293. 10274. 10319. 10347. 10366. 10379. 10388. 10396. 10400. 10400. 10394. 10382. 10364. 10332. 10295. 10253. 10209. 10165. 10127. 10096. 10074. 10060. 10055. 10066. 10084. 10114. 10161. 10222. 10298. 10394. 10496. 10599. 10694. 10779. 10858. 10922. 10973. 10997. 10982. 10927. 10858. 10774. 10702. 10651. 10589. 10538. 10489. 10529. 10581. 10681. 10689. 10701. 10688. 10690. 10721. 10819. 10942. 11048. 11159. 11170. 11085. 10991. 10915. 10849. 10803. 10774. 10756. 10737. 10722. 10712. 10707. 10703. 10691. 10667. 10635. 10576. 10509. 10443. 10386. 10330. 10296. 10273. 10260. 10257. 10282. 10318. 10358. 10398. 10435. 10451. 10460. 10464. 10474. 10491. 10510. 10531. 10561. 10584. 10598. 10597. 10583. 10572. 10590. 10613. 10647. 10673. 10687. 10678. 10680. 10691. 10744. 10816. 10883. 10939. 10981. 10998. 10998. 11005. 11005. 10998. 10990. 10982. 10966. 10953. 10936. 10913. 10873. 10816. 10747. 10696. 10652. 10625. 10614. 10615. 10619. 10626. 10630. 10637. 10651. 10666. 10686. 10720. 10747. 10750. 10728. 10681. 10609. 10534. 10478. 10431. 10399. 10379. 10357. 10331. 10310. 10290. 10273. 10265. 10259. 10251. 10243. 10230. 10206. 10184. 10165. 10150. 10137. 10137. 10139. 10141. 10139. 10137. 10130. 10146. 10193. 10242. 10330. 10420. 10548. 10639. 10717. 10749. 10840. 10858. 10876. 10901. 10908. 10835. 10754. 10660. 10562. 10498. 10461. 10444. 10412. 10439. 10414. 10427. 10394. 10398. 10360. 10401. 10425. 10500. 10582. 10655. 10700. 10718. 10736. 10756. 10787. 10829. 10869. 10905. 10919. 10923. 10904. 10880. 10822. 10768. 10698. 10632. 10566. 10528. 10491. 10467. 10440. 10408. 10374. 10340. 10309. 10277. 10247. 10217. 10185. 10146. 10102. 10062. 10026. 9993. 9962. 9928. 9890. 9851. 9810. 9771. 9738. 9703. 9665. 9625. 9588. 9556. 9574. 9606. 9645. 9678. 9713. 9770. 9827. 9887. 10025. 10141. 10152. 10215. 10313. 10409. 10480. 10720.
    11379. 11380. 11386. 11393. 11404. 11413. 11420. 11424. 11427. 11427. 11427. 11428. 11431. 11434. 11435. 11437. 11437. 11438. 11441. 11448. 11461. 11479. 11497. 11519. 11542. 11563. 11585. 11616. 11656. 11702. 11755. 11811. 11870. 11940. 12003. 12042. 12069. 12077. 12060. 12038. 12028. 12025. 12030. 12036. 12039. 12041. 12027. 12000. 11967. 11937. 11904. 11880. 11860. 11846. 11826. 11817. 11806. 11795. 11782. 11764. 11739. 11711. 11699. 11690. 11685. 11669. 11665. 11662. 11682. 11714. 11721. 11726. 11715. 11675. 11622. 11589. 11553. 11518. 11489. 11468. 11463. 11460. 11454. 11450. 11447. 11446. 11448. 11451. 11448. 11440. 11425. 11408. 11400. 11397. 11408. 11435. 11486. 11558. 11653. 11738. 11812. 11806. 11751. 11648. 11513. 11355. 11222. 11101. 10997. 10913. 10851. 10797. 10732. 10665. 10604. 10548. 10511. 10491. 10478. 10468. 10457. 10445. 10439. 10443. 10451. 10461. 10472. 10486. 10508. 10539. 10587. 10643. 10706. 10769. 10830. 10889. 10955. 11018. 11081. 11141. 11192. 11233. 11265. 11287. 11303. 11317. 11325. 11328. 11318. 11293. 11248. 11192. 11128. 11069. 11007. 10951. 10906. 10875. 10853. 10844. 10851. 10867. 10892. 10917. 10939. 10959. 10977. 10977. 10949. 10915. 10880. 10835. 10799. 10787. 10787. 10788. 10790. 10803. 10816. 10835. 10863. 10895. 10911. 10922. 10918. 10902. 10880. 10856. 10834. 10813. 10792. 10768. 10742. 10710. 10668. 10622. 10579. 10537. 10504. 10475. 10454. 10431. 10414. 10401. 10397. 10399. 10413. 10431. 10448. 10461. 10457. 10443. 10421. 10392. 10358. 10333. 10306. 10283. 10268. 10262. 10273. 10309. 10322. 10335. 10349. 10382. 10391. 10433. 10450. 10441. 10395. 10332. 10275. 10237. 10209. 10181. 10173. 10167. 10155. 10160. 10173. 10199. 10237. 10285. 10320. 10339. 10352. 10361. 10368. 10369. 10365. 10346. 10306. 10260. 10204. 10146. 10094. 10057. 10023. 9996. 9978. 9969. 9966. 9969. 9983. 10002. 10027. 10065. 10114. 10173. 10249. 10332. 10420. 10502. 10576. 10640. 10688. 10725. 10736. 10717. 10672. 10615. 10543. 10482. 10435. 10402. 10377. 10360. 10425. 10500. 10576. 10583. 10593. 10554. 10531. 10546. 10603. 10696. 10786. 10871. 10877. 10845. 10782. 10731. 10689. 10653. 10632. 10624. 10615. 10608. 10604. 10604. 10603. 10584. 10544. 10492. 10418. 10335. 10260. 10203. 10150. 10115. 10089. 10078. 10076. 10104. 10155. 10219. 10281. 10341. 10380. 10397. 10404. 10413. 10425. 10442. 10458. 10446. 10427. 10402. 10365. 10317. 10310. 10333. 10384. 10453. 10511. 10556. 10572. 10572. 10570. 10630. 10705. 10785. 10859. 10923. 10940. 10933. 10935. 10933. 10924. 10918. 10911. 10892. 10865. 10827. 10776. 10706. 10624. 10539. 10476. 10436. 10414. 10402. 10424. 10449. 10473. 10490. 10516. 10525. 10533. 10546. 10578. 10606. 10608. 10572. 10509. 10421. 10327. 10255. 10205. 10168. 10143. 10122. 10101. 10089. 10079. 10070. 10067. 10064. 10057. 10053. 10047. 10037. 10030. 10027. 10026. 10025. 10029. 10033. 10036. 10036. 10035. 10027. 10021. 10033. 10040. 10079. 10119. 10213. 10282. 10348. 10380. 10473. 10497. 10570. 10654. 10715. 10684. 10640. 10529. 10425. 10339. 10277. 10233. 10210. 10202. 10201. 10201. 10207. 10217. 10231. 10254. 10305. 10365. 10429. 10481. 10533. 10560. 10581. 10603. 10634. 10678. 10721. 10760. 10778. 10782. 10749. 10711. 10641. 10577. 10503. 10445. 10388. 10365. 10345. 10340. 10333. 10321. 10298. 10269. 10237. 10202. 10165. 10132. 10098. 10059. 10015. 9975. 9937. 9899. 9863. 9827. 9789. 9748. 9707. 9668. 9632. 9593. 9553. 9512. 9474. 9442. 9417. 9397. 9383. 9371. 9362. 9401. 9445. 9499. 9601. 9660. 9674. 9638. 9590. 9443. 9325. 9385.
    11290. 11298. 11314. 11331. 11350. 11367. 11379. 11388. 11396. 11401. 11406. 11411. 11417. 11423. 11425. 11428. 11430. 11431. 11431. 11434. 11443. 11454. 11466. 11481. 11497. 11507. 11519. 11541. 11573. 11614. 11665. 11718. 11792. 11881. 11961. 12014. 12054. 12054. 12022. 11986. 11962. 11940. 11925. 11912. 11900. 11887. 11867. 11840. 11805. 11770. 11732. 11697. 11662. 11629. 11595. 11567. 11538. 11507. 11476. 11437. 11397. 11352. 11322. 11300. 11291. 11275. 11275. 11283. 11297. 11305. 11322. 11336. 11338. 11338. 11353. 11363. 11373. 11386. 11398. 11400. 11411. 11424. 11431. 11434. 11435. 11435. 11435. 11435. 11427. 11413. 11388. 11350. 11328. 11319. 11324. 11338. 11376. 11418. 11457. 11487. 11516. 11480. 11404. 11301. 11171. 11025. 10910. 10813. 10735. 10672. 10625. 10581. 10523. 10468. 10423. 10382. 10360. 10353. 10346. 10340. 10334. 10327. 10326. 10335. 10351. 10366. 10382. 10402. 10430. 10467. 10520. 10583. 10651. 10718. 10782. 10840. 10901. 10962. 11025. 11086. 11143. 11193. 11233. 11261. 11282. 11296. 11291. 11279. 11250. 11202. 11136. 11066. 10990. 10926. 10870. 10820. 10785. 10764. 10749. 10737. 10737. 10745. 10764. 10783. 10801. 10801. 10803. 10787. 10746. 10702. 10675. 10636. 10604. 10594. 10595. 10603. 10613. 10635. 10656. 10696. 10741. 10792. 10826. 10857. 10862. 10856. 10839. 10820. 10802. 10783. 10760. 10732. 10700. 10657. 10608. 10554. 10505. 10462. 10431. 10406. 10389. 10374. 10364. 10352. 10344. 10337. 10333. 10328. 10325. 10318. 10301. 10277. 10252. 10220. 10186. 10161. 10136. 10116. 10104. 10099. 10106. 10136. 10128. 10117. 10104. 10113. 10094. 10160. 10193. 10212. 10187. 10140. 10083. 10045. 10008. 9978. 9972. 9975. 9998. 10038. 10079. 10126. 10188. 10235. 10269. 10293. 10313. 10324. 10330. 10325. 10301. 10255. 10189. 10118. 10043. 9981. 9933. 9908. 9888. 9878. 9874. 9882. 9892. 9904. 9924. 9945. 9969. 10001. 10039. 10087. 10145. 10212. 10285. 10355. 10417. 10467. 10499. 10516. 10514. 10494. 10466. 10430. 10385. 10349. 10320. 10297. 10285. 10282. 10281. 10285. 10290. 10297. 10310. 10327. 10360. 10419. 10432. 10478. 10524. 10552. 10552. 10572. 10548. 10532. 10525. 10508. 10502. 10504. 10505. 10505. 10506. 10509. 10504. 10472. 10413. 10341. 10254. 10163. 10089. 10036. 9988. 9953. 9926. 9914. 9911. 9938. 9988. 10058. 10132. 10212. 10272. 10310. 10331. 10347. 10360. 10377. 10362. 10317. 10265. 10204. 10133. 10082. 10072. 10094. 10143. 10226. 10315. 10392. 10436. 10457. 10442. 10494. 10564. 10650. 10746. 10844. 10885. 10870. 10867. 10866. 10861. 10863. 10865. 10846. 10801. 10729. 10641. 10542. 10424. 10316. 10244. 10202. 10180. 10173. 10197. 10223. 10268. 10305. 10349. 10354. 10358. 10341. 10342. 10342. 10341. 10312. 10264. 10194. 10115. 10054. 10007. 9968. 9939. 9919. 9905. 9902. 9902. 9903. 9904. 9902. 9897. 9895. 9896. 9898. 9903. 9910. 9917. 9922. 9926. 9930. 9935. 9936. 9936. 9928. 9915. 9893. 9857. 9849. 9842. 9888. 9939. 10000. 10034. 10126. 10159. 10228. 10308. 10416. 10432. 10434. 10373. 10320. 10243. 10191. 10153. 10134. 10119. 10111. 10109. 10115. 10125. 10143. 10174. 10215. 10268. 10324. 10369. 10408. 10442. 10466. 10490. 10519. 10560. 10598. 10631. 10635. 10621. 10570. 10513. 10424. 10349. 10272. 10213. 10157. 10138. 10136. 10156. 10176. 10193. 10194. 10176. 10144. 10107. 10066. 10029. 9995. 9955. 9910. 9870. 9834. 9798. 9766. 9735. 9701. 9662. 9621. 9582. 9546. 9505. 9466. 9426. 9390. 9359. 9335. 9313. 9297. 9282. 9268. 9257. 9250. 9248. 9291. 9344. 9386. 9378. 9373. 9305. 9196. 9207.
    11189. 11204. 11229. 11257. 11287. 11315. 11336. 11353. 11367. 11379. 11388. 11398. 11408. 11417. 11423. 11427. 11430. 11428. 11425. 11424. 11427. 11431. 11437. 11446. 11454. 11456. 11457. 11468. 11489. 11519. 11560. 11604. 11675. 11789. 11894. 11970. 12033. 12047. 12001. 11953. 11918. 11881. 11849. 11821. 11791. 11762. 11736. 11705. 11665. 11624. 11579. 11523. 11461. 11398. 11336. 11282. 11235. 11188. 11143. 11093. 11047. 11003. 10976. 10957. 10953. 10952. 10965. 10991. 11023. 11045. 11061. 11069. 11065. 11066. 11094. 11129. 11170. 11226. 11280. 11321. 11360. 11397. 11417. 11427. 11430. 11430. 11430. 11427. 11411. 11388. 11336. 11271. 11219. 11193. 11178. 11186. 11188. 11191. 11181. 11166. 11155. 11113. 11037. 10938. 10820. 10696. 10608. 10539. 10491. 10455. 10424. 10395. 10357. 10318. 10288. 10264. 10253. 10255. 10257. 10258. 10261. 10262. 10267. 10281. 10301. 10318. 10335. 10358. 10384. 10417. 10466. 10526. 10590. 10661. 10730. 10790. 10852. 10913. 10973. 11030. 11085. 11133. 11181. 11215. 11243. 11228. 11195. 11143. 11077. 10994. 10930. 10860. 10787. 10725. 10673. 10631. 10605. 10592. 10579. 10568. 10561. 10559. 10582. 10601. 10613. 10609. 10609. 10578. 10536. 10498. 10478. 10448. 10421. 10412. 10413. 10421. 10432. 10457. 10482. 10525. 10579. 10657. 10715. 10773. 10755. 10768. 10751. 10737. 10720. 10723. 10673. 10634. 10587. 10533. 10499. 10463. 10420. 10385. 10360. 10344. 10333. 10324. 10316. 10304. 10289. 10274. 10257. 10235. 10215. 10196. 10167. 10136. 10108. 10075. 10041. 10018. 10000. 9987. 9981. 9982. 9984. 10004. 10006. 10006. 10006. 10003. 9975. 9998. 9998. 10002. 10004. 10004. 9982. 9976. 9967. 9962. 9957. 9958. 9971. 9999. 10036. 10077. 10122. 10162. 10198. 10227. 10253. 10273. 10281. 10261. 10213. 10143. 10053. 9965. 9885. 9827. 9787. 9771. 9766. 9774. 9792. 9819. 9846. 9870. 9894. 9916. 9936. 9962. 9993. 10034. 10084. 10143. 10207. 10268. 10320. 10359. 10382. 10388. 10385. 10377. 10364. 10344. 10318. 10292. 10261. 10235. 10219. 10212. 10209. 10212. 10214. 10219. 10228. 10245. 10268. 10313. 10326. 10333. 10327. 10306. 10294. 10320. 10340. 10365. 10391. 10392. 10398. 10405. 10407. 10411. 10414. 10417. 10399. 10351. 10276. 10187. 10088. 9999. 9931. 9885. 9848. 9819. 9796. 9785. 9780. 9801. 9847. 9913. 9987. 10066. 10130. 10180. 10212. 10231. 10237. 10238. 10202. 10132. 10061. 9995. 9925. 9876. 9864. 9882. 9926. 9986. 10089. 10186. 10248. 10284. 10292. 10332. 10369. 10419. 10469. 10517. 10546. 10561. 10577. 10596. 10639. 10674. 10716. 10742. 10716. 10604. 10489. 10369. 10229. 10115. 10043. 10001. 9983. 9978. 10003. 10028. 10070. 10105. 10146. 10147. 10147. 10126. 10120. 10114. 10110. 10086. 10051. 10001. 9942. 9895. 9858. 9821. 9791. 9770. 9759. 9759. 9766. 9774. 9782. 9786. 9785. 9785. 9790. 9798. 9808. 9818. 9829. 9834. 9837. 9842. 9846. 9849. 9851. 9842. 9827. 9800. 9759. 9701. 9644. 9637. 9635. 9648. 9679. 9768. 9809. 9872. 9941. 10060. 10126. 10191. 10200. 10210. 10176. 10134. 10088. 10058. 10027. 10005. 9989. 9980. 9980. 9990. 10018. 10080. 10157. 10236. 10309. 10366. 10392. 10405. 10417. 10432. 10463. 10493. 10515. 10488. 10440. 10358. 10270. 10156. 10080. 10008. 9957. 9910. 9907. 9924. 9964. 10005. 10046. 10065. 10058. 10034. 10000. 9958. 9921. 9885. 9847. 9805. 9770. 9739. 9709. 9679. 9651. 9620. 9585. 9548. 9512. 9476. 9436. 9396. 9354. 9316. 9284. 9259. 9235. 9216. 9196. 9179. 9164. 9154. 9147. 9146. 9146. 9186. 9170. 9157. 9133. 9103. 9096.
    11085. 11108. 11140. 11181. 11225. 11266. 11298. 11326. 11346. 11363. 11376. 11388. 11401. 11413. 11420. 11425. 11430. 11427. 11421. 11416. 11413. 11411. 11410. 11411. 11414. 11408. 11400. 11398. 11398. 11406. 11423. 11443. 11492. 11602. 11733. 11843. 11940. 11995. 11976. 11926. 11887. 11843. 11797. 11759. 11717. 11678. 11651. 11616. 11564. 11488. 11407. 11329. 11239. 11150. 11086. 11030. 10982. 10940. 10904. 10862. 10826. 10793. 10774. 10762. 10764. 10766. 10779. 10799. 10822. 10835. 10840. 10836. 10825. 10831. 10867. 10918. 10980. 11063. 11148. 11218. 11290. 11356. 11397. 11415. 11416. 11362. 11304. 11243. 11171. 11097. 11059. 11019. 10985. 10968. 10947. 10927. 10893. 10866. 10833. 10806. 10792. 10750. 10681. 10598. 10504. 10411. 10365. 10335. 10318. 10307. 10295. 10276. 10251. 10226. 10206. 10193. 10188. 10193. 10196. 10199. 10205. 10210. 10219. 10237. 10261. 10283. 10304. 10325. 10348. 10377. 10418. 10469. 10529. 10595. 10665. 10730. 10794. 10857. 10919. 10976. 11022. 11049. 11066. 11067. 11058. 11011. 10960. 10897. 10822. 10738. 10675. 10610. 10546. 10494. 10451. 10417. 10388. 10368. 10354. 10342. 10335. 10340. 10372. 10395. 10408. 10402. 10402. 10374. 10338. 10307. 10295. 10270. 10246. 10235. 10233. 10238. 10244. 10264. 10282. 10309. 10344. 10400. 10438. 10480. 10458. 10469. 10458. 10456. 10454. 10475. 10446. 10426. 10407. 10379. 10369. 10355. 10333. 10306. 10288. 10275. 10270. 10266. 10258. 10244. 10223. 10202. 10178. 10150. 10126. 10105. 10075. 10044. 10016. 9989. 9967. 9954. 9945. 9943. 9942. 9942. 9943. 9946. 9950. 9953. 9955. 9955. 9952. 9972. 9974. 9975. 9977. 9979. 9957. 9951. 9946. 9943. 9940. 9940. 9946. 9964. 9990. 10018. 10051. 10085. 10117. 10145. 10171. 10178. 10170. 10135. 10069. 9984. 9894. 9810. 9735. 9684. 9655. 9655. 9667. 9694. 9731. 9773. 9811. 9845. 9873. 9899. 9918. 9939. 9964. 9998. 10040. 10092. 10152. 10210. 10259. 10295. 10318. 10327. 10327. 10323. 10312. 10294. 10266. 10235. 10199. 10170. 10150. 10139. 10136. 10137. 10137. 10142. 10153. 10171. 10194. 10228. 10246. 10259. 10259. 10249. 10242. 10254. 10265. 10281. 10303. 10313. 10318. 10324. 10325. 10327. 10328. 10330. 10297. 10235. 10145. 10043. 9936. 9853. 9797. 9764. 9741. 9721. 9706. 9692. 9684. 9693. 9727. 9779. 9846. 9918. 9981. 10029. 10061. 10078. 10078. 10070. 10025. 9946. 9868. 9798. 9729. 9682. 9670. 9683. 9720. 9754. 9855. 9967. 10050. 10106. 10141. 10182. 10188. 10198. 10202. 10198. 10208. 10248. 10285. 10327. 10368. 10379. 10403. 10445. 10437. 10372. 10289. 10187. 10047. 9936. 9865. 9827. 9813. 9813. 9837. 9860. 9896. 9926. 9963. 9961. 9957. 9933. 9921. 9907. 9901. 9882. 9858. 9827. 9789. 9756. 9734. 9707. 9682. 9665. 9658. 9659. 9667. 9677. 9686. 9691. 9691. 9691. 9697. 9708. 9719. 9732. 9744. 9750. 9752. 9755. 9759. 9762. 9762. 9749. 9731. 9699. 9649. 9589. 9532. 9474. 9429. 9400. 9386. 9426. 9473. 9525. 9584. 9713. 9807. 9906. 9983. 10053. 10062. 10049. 10018. 9979. 9933. 9897. 9866. 9845. 9835. 9837. 9857. 9905. 9968. 10070. 10171. 10259. 10321. 10373. 10380. 10388. 10405. 10402. 10378. 10305. 10215. 10100. 10000. 9887. 9817. 9764. 9731. 9703. 9717. 9752. 9800. 9852. 9905. 9939. 9946. 9930. 9899. 9858. 9821. 9787. 9752. 9716. 9685. 9655. 9626. 9597. 9571. 9543. 9514. 9484. 9453. 9418. 9376. 9331. 9285. 9244. 9213. 9188. 9166. 9146. 9127. 9109. 9093. 9080. 9068. 9057. 9045. 9032. 9017. 9009. 8991. 8973. 9023.
    10986. 11017. 11057. 11109. 11166. 11221. 11266. 11305. 11331. 11352. 11367. 11381. 11396. 11408. 11417. 11424. 11430. 11425. 11417. 11408. 11401. 11394. 11387. 11383. 11376. 11362. 11339. 11318. 11294. 11276. 11264. 11254. 11272. 11349. 11444. 11522. 11594. 11632. 11675. 11693. 11721. 11741. 11759. 11715. 11673. 11630. 11604. 11571. 11478. 11364. 11254. 11159. 11045. 10943. 10871. 10808. 10756. 10721. 10696. 10672. 10653. 10639. 10634. 10636. 10645. 10655. 10672. 10691. 10702. 10700. 10688. 10668. 10647. 10650. 10686. 10744. 10816. 10917. 11027. 11124. 11188. 11219. 11196. 11152. 11108. 11034. 10974. 10914. 10845. 10776. 10744. 10708. 10678. 10655. 10622. 10589. 10540. 10496. 10457. 10430. 10416. 10381. 10337. 10290. 10245. 10204. 10209. 10219. 10226. 10228. 10223. 10207. 10185. 10163. 10145. 10133. 10130. 10136. 10139. 10143. 10148. 10154. 10165. 10187. 10215. 10243. 10268. 10291. 10312. 10335. 10367. 10408. 10458. 10515. 10573. 10629. 10700. 10773. 10844. 10873. 10893. 10876. 10848. 10807. 10794. 10746. 10694. 10630. 10556. 10478. 10425. 10374. 10324. 10283. 10246. 10209. 10173. 10145. 10123. 10106. 10096. 10105. 10148. 10186. 10213. 10219. 10223. 10197. 10164. 10137. 10130. 10113. 10091. 10079. 10072. 10071. 10065. 10069. 10072. 10082. 10100. 10143. 10170. 10202. 10177. 10186. 10178. 10182. 10188. 10220. 10203. 10193. 10182. 10176. 10190. 10202. 10204. 10201. 10191. 10182. 10181. 10182. 10180. 10171. 10152. 10129. 10102. 10071. 10046. 10027. 10004. 9982. 9964. 9946. 9932. 9923. 9915. 9911. 9907. 9902. 9900. 9898. 9899. 9900. 9901. 9904. 9909. 9912. 9915. 9918. 9919. 9921. 9921. 9919. 9919. 9919. 9918. 9917. 9919. 9928. 9942. 9956. 9972. 9991. 10008. 10024. 10037. 10033. 10014. 9975. 9908. 9826. 9740. 9663. 9601. 9566. 9554. 9570. 9598. 9636. 9681. 9732. 9778. 9818. 9852. 9881. 9901. 9921. 9942. 9969. 10005. 10050. 10102. 10159. 10210. 10247. 10272. 10284. 10285. 10280. 10267. 10244. 10210. 10171. 10130. 10097. 10075. 10065. 10062. 10064. 10062. 10067. 10080. 10102. 10128. 10165. 10199. 10223. 10234. 10234. 10227. 10225. 10222. 10226. 10238. 10251. 10257. 10264. 10265. 10266. 10265. 10264. 10213. 10128. 10018. 9900. 9784. 9710. 9670. 9652. 9644. 9634. 9625. 9616. 9610. 9609. 9628. 9664. 9716. 9775. 9834. 9882. 9913. 9925. 9918. 9905. 9854. 9770. 9688. 9616. 9549. 9512. 9511. 9516. 9543. 9545. 9636. 9744. 9855. 9940. 10015. 10056. 10034. 9993. 9937. 9865. 9852. 9918. 9979. 10044. 10087. 10081. 10087. 10152. 10167. 10149. 10105. 10040. 9921. 9827. 9764. 9726. 9703. 9690. 9702. 9711. 9734. 9756. 9785. 9777. 9771. 9745. 9721. 9697. 9690. 9679. 9674. 9670. 9662. 9651. 9646. 9629. 9609. 9594. 9588. 9589. 9596. 9605. 9613. 9617. 9616. 9615. 9621. 9631. 9642. 9653. 9664. 9668. 9668. 9668. 9669. 9670. 9666. 9644. 9617. 9576. 9522. 9464. 9417. 9371. 9339. 9319. 9308. 9305. 9308. 9305. 9306. 9390. 9496. 9613. 9724. 9853. 9904. 9925. 9917. 9896. 9838. 9791. 9747. 9715. 9692. 9681. 9685. 9714. 9759. 9842. 9925. 9995. 10048. 10142. 10196. 10247. 10260. 10253. 10172. 10047. 9912. 9802. 9708. 9620. 9574. 9544. 9530. 9522. 9537. 9572. 9623. 9682. 9746. 9794. 9819. 9817. 9796. 9763. 9731. 9700. 9668. 9636. 9608. 9580. 9551. 9524. 9501. 9478. 9455. 9428. 9396. 9356. 9309. 9260. 9211. 9170. 9139. 9117. 9097. 9079. 9060. 9042. 9023. 9008. 8993. 8979. 8964. 8949. 8929. 8913. 8900. 8889. 8939.
    10911. 10947. 10991. 11050. 11114. 11180. 11236. 11284. 11317. 11343. 11362. 11379. 11394. 11410. 11420. 11428. 11434. 11430. 11418. 11406. 11394. 11383. 11370. 11359. 11345. 11317. 11278. 11237. 11189. 11141. 11096. 11051. 11031. 11066. 11125. 11180. 11232. 11258. 11294. 11304. 11324. 11333. 11343. 11300. 11310. 11327. 11365. 11428. 11388. 11231. 11099. 11004. 10889. 10784. 10706. 10632. 10566. 10525. 10505. 10492. 10487. 10488. 10492. 10500. 10513. 10527. 10549. 10572. 10588. 10589. 10576. 10551. 10523. 10509. 10534. 10584. 10652. 10740. 10839. 10867. 10885. 10870. 10823. 10767. 10760. 10692. 10635. 10578. 10514. 10448. 10413. 10379. 10347. 10320. 10285. 10254. 10206. 10162. 10118. 10089. 10071. 10078. 10078. 10082. 10087. 10095. 10108. 10126. 10141. 10150. 10152. 10141. 10122. 10104. 10088. 10078. 10077. 10084. 10087. 10090. 10095. 10099. 10110. 10134. 10165. 10197. 10227. 10253. 10274. 10294. 10316. 10346. 10381. 10417. 10451. 10484. 10528. 10577. 10629. 10641. 10648. 10622. 10587. 10543. 10528. 10481. 10432. 10372. 10307. 10244. 10206. 10169. 10128. 10091. 10048. 10002. 9958. 9924. 9896. 9878. 9869. 9878. 9915. 9971. 10032. 10069. 10095. 10096. 10074. 10046. 10037. 10028. 10014. 9995. 9974. 9949. 9917. 9890. 9866. 9850. 9849. 9873. 9889. 9912. 9886. 9897. 9895. 9908. 9922. 9963. 9956. 9956. 9957. 9963. 9987. 10005. 10012. 10010. 9996. 9982. 9976. 9972. 9994. 10013. 10016. 10017. 10015. 9982. 9955. 9943. 9930. 9917. 9908. 9898. 9888. 9879. 9871. 9862. 9851. 9840. 9833. 9826. 9827. 9830. 9833. 9837. 9846. 9853. 9861. 9869. 9878. 9883. 9885. 9887. 9890. 9893. 9894. 9894. 9894. 9895. 9896. 9894. 9892. 9892. 9893. 9897. 9900. 9888. 9865. 9825. 9759. 9685. 9623. 9570. 9530. 9515. 9518. 9533. 9558. 9594. 9638. 9689. 9741. 9788. 9827. 9860. 9883. 9903. 9923. 9948. 9976. 10012. 10055. 10102. 10145. 10182. 10207. 10213. 10210. 10203. 10187. 10160. 10129. 10092. 10053. 10018. 9996. 9988. 9989. 9992. 9994. 10003. 10025. 10058. 10097. 10142. 10185. 10212. 10223. 10220. 10214. 10210. 10205. 10204. 10214. 10225. 10229. 10236. 10238. 10238. 10195. 10150. 10056. 9937. 9809. 9715. 9624. 9578. 9560. 9554. 9555. 9555. 9554. 9552. 9552. 9552. 9560. 9577. 9609. 9646. 9686. 9726. 9755. 9764. 9753. 9733. 9674. 9610. 9550. 9499. 9455. 9440. 9434. 9434. 9438. 9443. 9508. 9598. 9695. 9790. 9871. 9912. 9899. 9861. 9804. 9737. 9702. 9709. 9724. 9759. 9757. 9722. 9698. 9781. 9826. 9890. 9920. 9915. 9824. 9752. 9693. 9650. 9622. 9614. 9609. 9600. 9605. 9611. 9616. 9606. 9599. 9575. 9550. 9526. 9522. 9527. 9543. 9562. 9579. 9589. 9592. 9581. 9565. 9550. 9541. 9536. 9534. 9535. 9537. 9537. 9534. 9532. 9536. 9544. 9554. 9564. 9573. 9577. 9577. 9575. 9571. 9564. 9550. 9518. 9481. 9436. 9388. 9340. 9305. 9272. 9249. 9233. 9224. 9217. 9216. 9217. 9219. 9254. 9315. 9389. 9468. 9578. 9645. 9687. 9707. 9710. 9675. 9646. 9612. 9577. 9545. 9519. 9505. 9512. 9534. 9595. 9659. 9709. 9744. 9824. 9867. 9909. 9918. 9911. 9833. 9718. 9598. 9512. 9440. 9375. 9346. 9329. 9318. 9312. 9328. 9362. 9413. 9479. 9554. 9619. 9667. 9690. 9685. 9665. 9636. 9608. 9575. 9545. 9514. 9487. 9462. 9438. 9419. 9401. 9382. 9359. 9327. 9288. 9242. 9192. 9141. 9099. 9068. 9047. 9029. 9010. 8992. 8972. 8950. 8933. 8916. 8901. 8884. 8869. 8850. 8832. 8817. 8804. 8795.
    10875. 10909. 10949. 11005. 11071. 11141. 11207. 11265. 11307. 11338. 11360. 11380. 11398. 11417. 11431. 11444. 11453. 11448. 11435. 11420. 11401. 11383. 11366. 11348. 11317. 11273. 11218. 11155. 11077. 11002. 10927. 10856. 10799. 10797. 10824. 10851. 10876. 10892. 10922. 10926. 10936. 10936. 10940. 10895. 10867. 10841. 10802. 10787. 10753. 10681. 10617. 10638. 10610. 10561. 10531. 10474. 10385. 10317. 10279. 10268. 10295. 10326. 10360. 10389. 10404. 10418. 10439. 10463. 10481. 10488. 10484. 10467. 10448. 10421. 10400. 10395. 10407. 10420. 10455. 10440. 10456. 10446. 10426. 10398. 10424. 10365. 10311. 10257. 10194. 10129. 10096. 10070. 10043. 10015. 9980. 9953. 9909. 9879. 9871. 9883. 9902. 9939. 9967. 9982. 9993. 10006. 10026. 10047. 10066. 10080. 10087. 10079. 10065. 10050. 10036. 10029. 10030. 10038. 10043. 10047. 10049. 10053. 10062. 10085. 10116. 10151. 10184. 10212. 10235. 10253. 10269. 10284. 10299. 10309. 10312. 10310. 10325. 10347. 10375. 10373. 10372. 10342. 10306. 10266. 10253. 10211. 10176. 10132. 10087. 10045. 10026. 10001. 9970. 9932. 9883. 9832. 9780. 9737. 9706. 9688. 9679. 9685. 9712. 9756. 9837. 9917. 9990. 10048. 10082. 10070. 10050. 10028. 9998. 9961. 9917. 9870. 9815. 9762. 9714. 9670. 9642. 9638. 9634. 9637. 9609. 9620. 9625. 9644. 9666. 9714. 9719. 9732. 9746. 9764. 9796. 9821. 9827. 9820. 9801. 9783. 9771. 9766. 9786. 9806. 9820. 9835. 9861. 9858. 9862. 9871. 9878. 9872. 9867. 9858. 9849. 9835. 9824. 9807. 9789. 9771. 9760. 9748. 9749. 9753. 9758. 9763. 9774. 9785. 9796. 9811. 9826. 9836. 9843. 9848. 9853. 9858. 9862. 9864. 9865. 9863. 9858. 9849. 9834. 9818. 9804. 9792. 9780. 9760. 9732. 9692. 9640. 9588. 9548. 9516. 9496. 9489. 9492. 9505. 9526. 9556. 9596. 9645. 9699. 9749. 9795. 9833. 9862. 9884. 9904. 9927. 9952. 9980. 10013. 10051. 10080. 10099. 10108. 10099. 10082. 10069. 10055. 10034. 10015. 9990. 9963. 9941. 9928. 9925. 9932. 9940. 9948. 9969. 10007. 10055. 10107. 10163. 10209. 10234. 10245. 10244. 10238. 10233. 10228. 10223. 10228. 10234. 10235. 10238. 10238. 10190. 10099. 10007. 9872. 9726. 9620. 9551. 9485. 9461. 9456. 9458. 9469. 9477. 9485. 9490. 9497. 9497. 9503. 9510. 9527. 9542. 9562. 9585. 9604. 9607. 9595. 9569. 9528. 9480. 9437. 9406. 9383. 9366. 9358. 9356. 9358. 9370. 9412. 9483. 9566. 9649. 9729. 9779. 9779. 9749. 9699. 9642. 9585. 9546. 9518. 9511. 9499. 9496. 9507. 9584. 9640. 9708. 9758. 9775. 9724. 9681. 9627. 9583. 9553. 9546. 9546. 9541. 9529. 9517. 9503. 9493. 9488. 9488. 9487. 9486. 9485. 9489. 9500. 9514. 9529. 9539. 9544. 9538. 9526. 9513. 9503. 9495. 9488. 9483. 9477. 9469. 9459. 9450. 9446. 9448. 9455. 9464. 9471. 9476. 9476. 9469. 9459. 9445. 9424. 9386. 9349. 9310. 9270. 9231. 9206. 9181. 9163. 9149. 9139. 9128. 9117. 9108. 9096. 9092. 9120. 9165. 9219. 9308. 9387. 9442. 9478. 9496. 9478. 9467. 9443. 9414. 9383. 9352. 9323. 9308. 9305. 9342. 9382. 9417. 9441. 9511. 9548. 9584. 9591. 9584. 9513. 9417. 9321. 9260. 9214. 9175. 9162. 9157. 9153. 9154. 9172. 9199. 9237. 9291. 9358. 9424. 9485. 9539. 9557. 9551. 9529. 9500. 9461. 9432. 9404. 9381. 9360. 9338. 9319. 9303. 9287. 9267. 9240. 9202. 9158. 9110. 9062. 9022. 8994. 8975. 8958. 8940. 8921. 8901. 8877. 8858. 8841. 8825. 8806. 8790. 8773. 8755. 8739. 8727. 8715.
    10852. 10884. 10919. 10972. 11038. 11110. 11182. 11251. 11303. 11340. 11367. 11391. 11414. 11437. 11456. 11474. 11484. 11481. 11464. 11443. 11418. 11394. 11369. 11343. 11291. 11224. 11136. 11039. 10927. 10831. 10738. 10658. 10590. 10551. 10542. 10533. 10523. 10513. 10540. 10544. 10551. 10548. 10545. 10494. 10429. 10363. 10250. 10174. 10153. 10158. 10161. 10256. 10283. 10264. 10262. 10233. 10163. 10106. 10071. 10064. 10106. 10163. 10223. 10277. 10314. 10333. 10347. 10366. 10384. 10394. 10395. 10379. 10340. 10288. 10231. 10187. 10163. 10137. 10130. 10063. 10063. 10045. 10049. 10048. 10107. 10056. 10005. 9950. 9887. 9822. 9802. 9791. 9780. 9763. 9739. 9711. 9685. 9674. 9693. 9736. 9786. 9835. 9879. 9907. 9925. 9940. 9961. 9980. 9999. 10015. 10026. 10024. 10015. 10006. 9996. 9993. 9995. 10003. 10006. 10010. 10008. 10008. 10015. 10035. 10064. 10097. 10130. 10159. 10180. 10196. 10209. 10213. 10213. 10198. 10171. 10134. 10116. 10108. 10113. 10097. 10090. 10065. 10032. 9996. 9989. 9980. 9974. 9964. 9953. 9941. 9925. 9903. 9871. 9830. 9776. 9720. 9662. 9613. 9580. 9561. 9549. 9551. 9560. 9590. 9661. 9734. 9842. 9952. 10034. 10059. 10070. 10036. 9990. 9932. 9867. 9798. 9722. 9647. 9585. 9531. 9486. 9452. 9425. 9403. 9394. 9396. 9407. 9430. 9460. 9498. 9534. 9566. 9598. 9629. 9650. 9660. 9658. 9644. 9621. 9596. 9582. 9575. 9593. 9612. 9633. 9654. 9689. 9704. 9725. 9748. 9769. 9775. 9775. 9769. 9762. 9750. 9741. 9724. 9705. 9684. 9669. 9653. 9652. 9655. 9661. 9667. 9682. 9696. 9714. 9735. 9759. 9776. 9791. 9802. 9814. 9824. 9830. 9834. 9836. 9834. 9831. 9822. 9798. 9769. 9735. 9699. 9665. 9620. 9559. 9503. 9453. 9411. 9388. 9389. 9394. 9408. 9426. 9450. 9478. 9512. 9549. 9595. 9647. 9702. 9753. 9798. 9834. 9861. 9882. 9903. 9924. 9945. 9967. 9991. 9996. 9993. 9980. 9954. 9924. 9909. 9895. 9879. 9877. 9871. 9865. 9864. 9869. 9872. 9883. 9892. 9901. 9924. 9981. 10045. 10114. 10185. 10247. 10270. 10281. 10280. 10272. 10262. 10255. 10246. 10248. 10251. 10200. 10147. 10102. 10006. 9870. 9779. 9660. 9533. 9447. 9401. 9360. 9349. 9353. 9361. 9374. 9386. 9397. 9409. 9420. 9422. 9427. 9430. 9438. 9447. 9464. 9480. 9494. 9498. 9490. 9458. 9417. 9373. 9333. 9301. 9285. 9274. 9268. 9267. 9270. 9280. 9307. 9367. 9444. 9527. 9609. 9674. 9681. 9646. 9589. 9523. 9460. 9418. 9393. 9387. 9389. 9399. 9425. 9469. 9512. 9570. 9618. 9640. 9619. 9588. 9538. 9493. 9461. 9455. 9459. 9460. 9455. 9451. 9444. 9440. 9441. 9447. 9451. 9455. 9457. 9461. 9469. 9478. 9489. 9498. 9503. 9500. 9490. 9478. 9468. 9457. 9441. 9425. 9407. 9387. 9365. 9348. 9340. 9337. 9340. 9345. 9348. 9351. 9348. 9336. 9319. 9300. 9274. 9239. 9207. 9177. 9146. 9118. 9098. 9081. 9068. 9058. 9050. 9039. 9025. 9014. 8999. 8986. 8986. 8995. 9020. 9078. 9137. 9199. 9253. 9287. 9292. 9300. 9294. 9281. 9262. 9235. 9204. 9162. 9126. 9128. 9133. 9136. 9149. 9211. 9244. 9279. 9286. 9279. 9217. 9149. 9085. 9056. 9040. 9029. 9024. 9021. 9018. 9020. 9037. 9059. 9090. 9133. 9191. 9247. 9304. 9356. 9380. 9378. 9361. 9337. 9304. 9284. 9266. 9253. 9240. 9225. 9208. 9193. 9179. 9161. 9136. 9101. 9061. 9017. 8971. 8934. 8909. 8890. 8875. 8858. 8841. 8821. 8796. 8775. 8756. 8737. 8718. 8704. 8690. 8677. 8665. 8655. 8644.
    10835. 10866. 10900. 10951. 11018. 11093. 11171. 11248. 11307. 11349. 11381. 11411. 11440. 11473. 11503. 11531. 11545. 11541. 11515. 11481. 11446. 11408. 11373. 11325. 11247. 11146. 11026. 10898. 10775. 10671. 10579. 10503. 10436. 10378. 10326. 10274. 10222. 10173. 10176. 10177. 10179. 10170. 10161. 10105. 10006. 9904. 9810. 9696. 9686. 9767. 9832. 9922. 10000. 10006. 10015. 9996. 9940. 9892. 9863. 9857. 9901. 9966. 10045. 10123. 10185. 10228. 10258. 10280. 10301. 10316. 10313. 10267. 10197. 10108. 10012. 9932. 9898. 9847. 9803. 9749. 9733. 9714. 9736. 9762. 9800. 9798. 9790. 9772. 9745. 9714. 9681. 9649. 9626. 9602. 9583. 9571. 9566. 9570. 9598. 9641. 9690. 9740. 9787. 9822. 9847. 9867. 9888. 9907. 9924. 9940. 9952. 9954. 9951. 9946. 9940. 9939. 9944. 9953. 9957. 9962. 9962. 9961. 9967. 9987. 10014. 10047. 10081. 10109. 10130. 10145. 10152. 10146. 10128. 10087. 10026. 9953. 9902. 9864. 9844. 9816. 9809. 9800. 9800. 9806. 9838. 9868. 9886. 9893. 9893. 9888. 9877. 9851. 9810. 9756. 9692. 9626. 9568. 9520. 9486. 9463. 9443. 9430. 9425. 9441. 9500. 9567. 9670. 9776. 9854. 9878. 9917. 9913. 9897. 9866. 9820. 9736. 9643. 9552. 9479. 9428. 9392. 9368. 9351. 9340. 9333. 9337. 9348. 9371. 9397. 9432. 9465. 9492. 9508. 9524. 9529. 9521. 9502. 9484. 9458. 9430. 9413. 9403. 9421. 9440. 9464. 9490. 9530. 9550. 9576. 9602. 9625. 9634. 9636. 9633. 9633. 9630. 9629. 9621. 9610. 9593. 9578. 9563. 9561. 9563. 9568. 9576. 9595. 9613. 9634. 9660. 9690. 9715. 9739. 9759. 9778. 9795. 9808. 9816. 9822. 9820. 9814. 9799. 9699. 9595. 9506. 9434. 9371. 9336. 9289. 9245. 9213. 9191. 9181. 9197. 9219. 9248. 9289. 9338. 9388. 9437. 9488. 9539. 9589. 9642. 9696. 9746. 9790. 9822. 9846. 9866. 9882. 9889. 9890. 9892. 9876. 9851. 9822. 9787. 9751. 9729. 9712. 9692. 9690. 9706. 9728. 9756. 9792. 9783. 9756. 9723. 9690. 9668. 9715. 9769. 9828. 9953. 10076. 10164. 10243. 10312. 10303. 10291. 10280. 10268. 10264. 10202. 10085. 9977. 9896. 9768. 9633. 9543. 9437. 9329. 9266. 9244. 9226. 9229. 9242. 9254. 9268. 9281. 9292. 9304. 9313. 9317. 9320. 9321. 9322. 9320. 9325. 9332. 9337. 9336. 9329. 9299. 9261. 9224. 9192. 9167. 9158. 9155. 9155. 9158. 9167. 9180. 9205. 9256. 9333. 9418. 9501. 9568. 9583. 9544. 9480. 9412. 9348. 9309. 9288. 9283. 9285. 9292. 9309. 9347. 9384. 9438. 9487. 9516. 9503. 9478. 9433. 9393. 9365. 9361. 9367. 9371. 9371. 9372. 9370. 9371. 9380. 9395. 9406. 9418. 9426. 9430. 9435. 9443. 9452. 9460. 9465. 9464. 9455. 9441. 9425. 9406. 9381. 9352. 9325. 9296. 9263. 9231. 9205. 9185. 9170. 9162. 9159. 9160. 9160. 9152. 9139. 9125. 9106. 9079. 9056. 9034. 9015. 8995. 8981. 8969. 8958. 8949. 8940. 8927. 8910. 8895. 8877. 8858. 8846. 8842. 8840. 8869. 8902. 8948. 8999. 9053. 9086. 9120. 9139. 9142. 9133. 9111. 9084. 9048. 9015. 8986. 8958. 8929. 8908. 8933. 8963. 8994. 9000. 9008. 8974. 8940. 8908. 8909. 8908. 8903. 8900. 8899. 8898. 8901. 8915. 8933. 8956. 8986. 9029. 9071. 9116. 9162. 9184. 9185. 9176. 9160. 9135. 9125. 9121. 9117. 9112. 9105. 9089. 9073. 9057. 9038. 9015. 8986. 8950. 8911. 8872. 8836. 8811. 8794. 8779. 8765. 8750. 8732. 8710. 8691. 8674. 8658. 8642. 8629. 8616. 8603. 8590. 8580. 8569.
    10826. 10858. 10893. 10947. 11015. 11094. 11177. 11259. 11324. 11371. 11408. 11446. 11484. 11528. 11569. 11604. 11620. 11614. 11580. 11534. 11484. 11434. 11383. 11305. 11197. 11065. 10918. 10768. 10640. 10537. 10452. 10381. 10314. 10254. 10201. 10144. 10089. 10040. 9990. 9939. 9888. 9831. 9774. 9723. 9671. 9626. 9594. 9559. 9575. 9602. 9624. 9679. 9739. 9756. 9774. 9769. 9727. 9686. 9663. 9662. 9709. 9776. 9862. 9956. 10041. 10109. 10162. 10202. 10226. 10211. 10168. 10081. 9975. 9854. 9751. 9668. 9626. 9600. 9583. 9561. 9557. 9569. 9594. 9624. 9669. 9696. 9701. 9683. 9657. 9626. 9594. 9564. 9541. 9524. 9515. 9514. 9517. 9527. 9550. 9585. 9625. 9668. 9712. 9750. 9776. 9796. 9818. 9835. 9851. 9867. 9877. 9879. 9877. 9869. 9860. 9858. 9861. 9873. 9888. 9903. 9914. 9925. 9934. 9953. 9980. 10014. 10054. 10081. 10104. 10113. 10057. 9991. 9918. 9829. 9722. 9652. 9597. 9553. 9527. 9524. 9540. 9568. 9616. 9678. 9738. 9794. 9835. 9855. 9860. 9855. 9834. 9792. 9733. 9662. 9584. 9518. 9466. 9427. 9401. 9383. 9363. 9341. 9318. 9315. 9353. 9401. 9493. 9592. 9663. 9683. 9713. 9702. 9681. 9671. 9648. 9587. 9516. 9447. 9377. 9329. 9301. 9285. 9275. 9267. 9261. 9264. 9275. 9297. 9322. 9356. 9394. 9427. 9446. 9451. 9440. 9412. 9372. 9336. 9306. 9278. 9259. 9248. 9262. 9279. 9302. 9329. 9371. 9394. 9426. 9457. 9484. 9495. 9500. 9496. 9496. 9495. 9499. 9497. 9492. 9480. 9469. 9457. 9460. 9469. 9480. 9496. 9523. 9547. 9573. 9605. 9642. 9676. 9708. 9736. 9762. 9785. 9802. 9815. 9824. 9760. 9681. 9578. 9413. 9250. 9189. 9155. 9123. 9096. 9058. 9020. 8992. 8974. 8970. 8991. 9022. 9059. 9110. 9174. 9242. 9306. 9371. 9438. 9500. 9563. 9627. 9687. 9738. 9773. 9796. 9813. 9822. 9817. 9804. 9787. 9750. 9704. 9659. 9608. 9561. 9531. 9511. 9493. 9492. 9505. 9524. 9545. 9568. 9549. 9517. 9479. 9443. 9418. 9455. 9494. 9538. 9643. 9746. 9892. 10035. 10176. 10242. 10308. 10299. 10289. 10282. 10202. 9980. 9810. 9700. 9549. 9396. 9303. 9213. 9129. 9092. 9096. 9105. 9121. 9138. 9151. 9164. 9175. 9183. 9192. 9200. 9204. 9205. 9204. 9198. 9187. 9182. 9180. 9180. 9176. 9169. 9139. 9105. 9072. 9047. 9028. 9029. 9034. 9041. 9052. 9068. 9087. 9114. 9160. 9229. 9313. 9394. 9457. 9471. 9441. 9378. 9312. 9257. 9226. 9208. 9204. 9204. 9206. 9216. 9241. 9271. 9319. 9365. 9394. 9388. 9369. 9330. 9296. 9275. 9275. 9284. 9291. 9296. 9301. 9303. 9309. 9325. 9348. 9368. 9387. 9401. 9408. 9412. 9418. 9425. 9430. 9435. 9433. 9422. 9400. 9375. 9346. 9309. 9269. 9227. 9180. 9128. 9077. 9031. 8997. 8973. 8958. 8953. 8954. 8956. 8953. 8946. 8936. 8926. 8911. 8899. 8890. 8883. 8872. 8863. 8853. 8843. 8833. 8823. 8810. 8792. 8776. 8757. 8738. 8724. 8716. 8707. 8709. 8717. 8738. 8776. 8820. 8869. 8921. 8961. 8979. 8988. 8982. 8967. 8943. 8919. 8895. 8873. 8850. 8832. 8821. 8814. 8809. 8811. 8815. 8818. 8822. 8825. 8824. 8821. 8817. 8814. 8812. 8813. 8817. 8825. 8834. 8845. 8861. 8886. 8912. 8942. 8971. 8984. 8980. 8969. 8952. 8934. 8932. 8938. 8945. 8950. 8950. 8937. 8920. 8903. 8887. 8870. 8852. 8828. 8798. 8767. 8736. 8713. 8699. 8689. 8680. 8670. 8656. 8639. 8621. 8603. 8586. 8570. 8557. 8544. 8532. 8519. 8508. 8495.
    10815. 10851. 10888. 10948. 11022. 11105. 11193. 11282. 11348. 11403. 11451. 11500. 11553. 11608. 11656. 11690. 11703. 11691. 11647. 11592. 11535. 11472. 11405. 11311. 11177. 11034. 10879. 10700. 10529. 10420. 10339. 10269. 10191. 10118. 10055. 9986. 9925. 9884. 9846. 9808. 9767. 9719. 9670. 9623. 9581. 9551. 9533. 9514. 9498. 9479. 9456. 9465. 9482. 9502. 9527. 9534. 9510. 9486. 9475. 9483. 9536. 9606. 9693. 9791. 9896. 9993. 10074. 10132. 10136. 10084. 9994. 9865. 9727. 9610. 9505. 9420. 9371. 9337. 9314. 9315. 9327. 9356. 9398. 9442. 9479. 9513. 9531. 9536. 9533. 9527. 9516. 9504. 9493. 9488. 9487. 9490. 9496. 9504. 9521. 9547. 9579. 9612. 9649. 9684. 9711. 9729. 9747. 9759. 9769. 9776. 9777. 9774. 9768. 9756. 9738. 9725. 9714. 9713. 9743. 9779. 9818. 9865. 9911. 9933. 9956. 9988. 10026. 10052. 10074. 10008. 9881. 9762. 9655. 9551. 9454. 9397. 9357. 9328. 9316. 9324. 9348. 9385. 9442. 9517. 9608. 9695. 9766. 9815. 9838. 9831. 9790. 9724. 9643. 9555. 9466. 9408. 9368. 9338. 9321. 9308. 9289. 9270. 9249. 9227. 9237. 9256. 9315. 9380. 9443. 9460. 9486. 9473. 9453. 9442. 9428. 9384. 9334. 9289. 9241. 9216. 9202. 9197. 9196. 9195. 9192. 9194. 9204. 9221. 9240. 9263. 9290. 9310. 9321. 9321. 9311. 9289. 9259. 9230. 9209. 9192. 9183. 9180. 9180. 9178. 9185. 9194. 9215. 9232. 9271. 9304. 9334. 9348. 9366. 9365. 9368. 9372. 9381. 9387. 9389. 9383. 9374. 9368. 9372. 9385. 9404. 9429. 9464. 9496. 9528. 9565. 9607. 9649. 9690. 9727. 9760. 9788. 9806. 9822. 9766. 9633. 9471. 9304. 9085. 8938. 8901. 8898. 8891. 8869. 8834. 8800. 8776. 8763. 8761. 8784. 8819. 8861. 8916. 8989. 9067. 9140. 9211. 9280. 9338. 9417. 9500. 9582. 9658. 9720. 9746. 9756. 9761. 9743. 9714. 9682. 9633. 9569. 9506. 9448. 9395. 9357. 9332. 9312. 9302. 9305. 9317. 9334. 9353. 9332. 9297. 9257. 9216. 9184. 9206. 9228. 9250. 9331. 9409. 9531. 9654. 9782. 9842. 9887. 9846. 9853. 9892. 9824. 9654. 9544. 9444. 9300. 9189. 9125. 9066. 9013. 9004. 9009. 9019. 9033. 9046. 9056. 9065. 9069. 9072. 9077. 9082. 9084. 9085. 9082. 9072. 9054. 9039. 9025. 9014. 9001. 8989. 8960. 8931. 8908. 8896. 8891. 8906. 8924. 8942. 8961. 8981. 9004. 9030. 9069. 9124. 9192. 9251. 9295. 9304. 9277. 9230. 9192. 9166. 9158. 9162. 9169. 9174. 9177. 9185. 9202. 9225. 9257. 9285. 9301. 9293. 9273. 9241. 9214. 9197. 9197. 9205. 9215. 9222. 9230. 9236. 9246. 9263. 9291. 9319. 9346. 9367. 9381. 9387. 9392. 9398. 9405. 9410. 9406. 9389. 9360. 9324. 9280. 9230. 9168. 9103. 9035. 8967. 8902. 8853. 8817. 8791. 8774. 8767. 8766. 8768. 8768. 8765. 8763. 8763. 8758. 8757. 8757. 8755. 8748. 8741. 8732. 8723. 8714. 8706. 8694. 8679. 8664. 8651. 8638. 8629. 8624. 8619. 8616. 8618. 8627. 8648. 8677. 8712. 8751. 8785. 8807. 8822. 8825. 8819. 8806. 8789. 8779. 8773. 8769. 8771. 8777. 8778. 8778. 8782. 8786. 8790. 8791. 8795. 8790. 8787. 8780. 8777. 8772. 8771. 8768. 8768. 8768. 8763. 8757. 8756. 8758. 8765. 8774. 8777. 8768. 8755. 8737. 8723. 8728. 8747. 8766. 8784. 8795. 8789. 8775. 8761. 8747. 8736. 8724. 8705. 8683. 8660. 8637. 8620. 8612. 8606. 8600. 8592. 8581. 8565. 8546. 8527. 8509. 8489. 8473. 8458. 8444. 8429. 8417. 8405.
    10775. 10817. 10861. 10928. 11013. 11105. 11202. 11300. 11379. 11447. 11509. 11572. 11636. 11699. 11747. 11776. 11782. 11762. 11705. 11639. 11579. 11509. 11428. 11314. 11149. 10990. 10817. 10581. 10384. 10257. 10170. 10099. 10021. 9940. 9881. 9818. 9765. 9735. 9710. 9685. 9657. 9621. 9580. 9541. 9505. 9480. 9465. 9450. 9433. 9414. 9390. 9368. 9352. 9344. 9343. 9348. 9353. 9359. 9371. 9383. 9417. 9469. 9539. 9622. 9731. 9839. 9921. 9968. 9959. 9890. 9778. 9638. 9498. 9391. 9309. 9247. 9217. 9202. 9185. 9175. 9175. 9189. 9218. 9251. 9282. 9309. 9328. 9339. 9347. 9363. 9384. 9406. 9426. 9447. 9461. 9469. 9476. 9483. 9495. 9514. 9536. 9560. 9589. 9619. 9642. 9659. 9669. 9670. 9669. 9662. 9648. 9635. 9624. 9608. 9586. 9568. 9547. 9531. 9546. 9591. 9648. 9729. 9758. 9752. 9695. 9640. 9586. 9605. 9617. 9597. 9513. 9435. 9363. 9293. 9214. 9177. 9154. 9141. 9144. 9161. 9189. 9229. 9288. 9360. 9446. 9562. 9660. 9738. 9790. 9796. 9729. 9636. 9529. 9425. 9341. 9296. 9272. 9258. 9247. 9238. 9222. 9206. 9192. 9176. 9163. 9152. 9180. 9206. 9224. 9227. 9248. 9233. 9215. 9215. 9217. 9192. 9163. 9137. 9107. 9095. 9091. 9096. 9105. 9112. 9114. 9119. 9127. 9141. 9153. 9166. 9181. 9192. 9195. 9191. 9184. 9167. 9146. 9127. 9118. 9112. 9113. 9118. 9125. 9128. 9130. 9119. 9096. 9070. 9063. 9058. 9062. 9072. 9086. 9088. 9123. 9164. 9209. 9252. 9290. 9290. 9283. 9277. 9285. 9301. 9330. 9368. 9415. 9460. 9501. 9543. 9593. 9643. 9691. 9737. 9772. 9801. 9748. 9693. 9566. 9376. 9132. 8964. 8765. 8632. 8615. 8642. 8660. 8642. 8612. 8582. 8561. 8551. 8553. 8581. 8619. 8664. 8722. 8799. 8882. 8962. 9039. 9111. 9167. 9238. 9311. 9412. 9515. 9604. 9657. 9690. 9686. 9653. 9614. 9570. 9516. 9450. 9388. 9332. 9281. 9240. 9205. 9172. 9144. 9131. 9130. 9136. 9147. 9123. 9083. 9038. 8992. 8947. 8947. 8948. 8949. 9005. 9067. 9175. 9286. 9402. 9460. 9489. 9419. 9337. 9277. 9175. 9065. 9061. 9076. 9028. 8976. 8959. 8927. 8905. 8901. 8908. 8917. 8930. 8942. 8950. 8954. 8950. 8943. 8938. 8934. 8933. 8937. 8940. 8934. 8917. 8896. 8873. 8851. 8829. 8812. 8783. 8758. 8742. 8739. 8744. 8770. 8800. 8829. 8860. 8889. 8918. 8944. 8977. 9018. 9072. 9115. 9143. 9146. 9122. 9084. 9053. 9053. 9068. 9096. 9119. 9144. 9147. 9157. 9168. 9192. 9214. 9230. 9235. 9225. 9202. 9175. 9156. 9144. 9142. 9146. 9153. 9158. 9167. 9173. 9183. 9200. 9229. 9261. 9293. 9321. 9341. 9354. 9362. 9371. 9381. 9390. 9384. 9361. 9321. 9260. 9186. 9107. 9021. 8938. 8867. 8803. 8743. 8698. 8662. 8633. 8611. 8599. 8595. 8595. 8599. 8601. 8605. 8612. 8615. 8619. 8624. 8624. 8620. 8615. 8608. 8601. 8594. 8587. 8580. 8570. 8562. 8555. 8549. 8544. 8541. 8535. 8530. 8527. 8528. 8540. 8559. 8581. 8609. 8635. 8653. 8666. 8671. 8667. 8657. 8642. 8634. 8633. 8634. 8642. 8652. 8657. 8660. 8682. 8702. 8722. 8730. 8749. 8737. 8732. 8718. 8719. 8709. 8710. 8698. 8695. 8689. 8676. 8660. 8643. 8629. 8615. 8600. 8586. 8570. 8556. 8541. 8536. 8545. 8567. 8591. 8616. 8635. 8636. 8629. 8619. 8608. 8599. 8595. 8585. 8572. 8557. 8542. 8528. 8521. 8516. 8511. 8505. 8494. 8478. 8459. 8437. 8416. 8396. 8381. 8366. 8355. 8344. 8334. 8325.</data></src1>
</opencv_storage>
